630752.8 4834278.24 128.03 57
630753.17 4834278.12 127.92 1
630753.19 4834278.08 127.72 7
630753.18 4834278.1 127.86 1
630753.17 4834278.11 127.92 1
630753.18 4834278.07 127.84 1
630753.18 4834278.06 127.79 2
630754.81 4834278.24 128.37 8
630753.19 4834278.01 127.62 10
630753.18 4834278.08 127.88 1
630753.18 4834278.11 127.89 1
630753.2 4834278.05 127.55 8
630753.2 4834278.06 127.64 10
630753.18 4834278.04 127.75 5
630753.18 4834278.11 127.9 1
630753.18 4834278.1 127.81 2
630753.17 4834278.11 127.9 1
630753.19 4834278.09 127.77 4
630752.96 4834277.77 127.98 0
630754.81 4834278.13 128.34 14
630747.32 4834300.02 119.05 17
630745.94 4834298.89 119.05 30
630746.52 4834300.88 119.09 41
630747.19 4834299.05 119.03 10
630747.81 4834298.66 119.03 10
630747.65 4834299.12 119.03 11
630747.84 4834300.39 119.05 16
630746.69 4834300.42 119.05 33
630747.03 4834299.5 119.03 11
630745.98 4834300.22 119.07 38
630748.01 4834299.93 119.04 14
630747.48 4834299.57 119.05 14
630746.32 4834299.3 119.04 7
630747.16 4834300.48 119.05 41
630746.48 4834298.84 119.04 32
630746.86 4834299.96 119.04 16
630746.15 4834299.76 119.06 26
630747.67 4834300.85 119.05 39
630745.82 4834300.67 119.09 46
630761.15 4834301.31 114.16 10
630761.1 4834302.76 114.17 10
630760.98 4834301.77 114.15 10
630760.48 4834301.23 114.15 10
630759.81 4834303.09 114.13 8
630761.43 4834301.84 114.18 11
630760.65 4834302.7 114.15 11
630759.98 4834302.63 114.13 8
630761.27 4834302.3 114.16 10
630759.76 4834301.82 114.11 8
630760.31 4834301.7 114.14 10
630759.42 4834302.74 114.1 8
630760.14 4834302.16 114.13 8
630760.82 4834302.24 114.15 10
630759.59 4834302.28 114.11 5
630759.93 4834301.35 114.14 8
630759.24 4834287.48 119.17 33
630757.7 4834288.3 119.27 35
630757.22 4834288.33 119.19 30
630758.76 4834287.46 119.21 35
630758.58 4834289.32 119.12 36
630757.87 4834287.84 119.29 36
630758.6 4834287.92 119.2 36
630758.26 4834288.83 119.16 35
630757.55 4834287.41 119.19 30
630758.1 4834289.29 119.15 36
630758.74 4834288.86 119.12 38
630759.08 4834287.94 119.14 38
630758.91 4834288.4 119.13 41
630758.43 4834288.37 119.17 35
630757.54 4834288.75 119.17 23
630757.39 4834287.87 119.2 35
630757.37 4834289.21 119.21 27
630737.18 4834290.39 119.17 20
630738.16 4834289.77 118.87 35
630738.93 4834291.24 119.09 11
630737.01 4834290.84 119.04 35
630737.99 4834290.24 119.03 33
630737.82 4834290.69 119 49
630738.76 4834291.7 119.06 10
630737.34 4834289.92 119.11 41
630737.66 4834291.15 118.99 46
630736.92 4834289.69 119.01 36
630729.56 4834292.97 119.13 36
630728.62 4834293.56 119.26 35
630728.79 4834293.1 119.23 35
630729.23 4834293.88 119.16 32
630728.2 4834293.41 119.34 36
630729.73 4834292.51 119.13 33
630729.9 4834293.34 119.14 27
630728.7 4834292.04 119.27 35
630728.96 4834292.64 119.23 39
630728.03 4834293.86 119.27 43
630728.37 4834292.95 119.28 32
630728.46 4834294.02 119.27 35
630728.53 4834292.49 119.27 42
630729.39 4834293.43 119.15 35
630729.9 4834292.05 119.12 38
630729.12 4834292.18 119.22 35
630729.73 4834293.8 119.13 32
630738.21 4834301.06 119.17 36
630738.4 4834302.6 119.41 13
630737.32 4834302.14 119.38 5
630738.9 4834301.23 119.16 35
630737.87 4834301.98 119.37 24
630738.73 4834301.68 119.2 36
630737.48 4834301.68 119.23 36
630737.65 4834301.23 119.19 38
630736.89 4834301.49 119.24 42
630738.56 4834302.14 119.25 41
630738.04 4834301.52 119.21 41
630737.06 4834301.03 119.22 39
630741.72 4834300.35 119.17 46
630742.97 4834300.26 119.15 46
630741.42 4834299.2 119.16 42
630742.65 4834299.24 119.13 42
630743.31 4834299.34 119.08 41
630743.43 4834300.34 119.15 51
630742.81 4834300.71 119.14 46
630742.15 4834300.61 119.15 46
630741.55 4834300.81 119.14 42
630743.27 4834300.8 119.15 48
630742.22 4834298.98 119.1 43
630742.05 4834299.44 119.14 41
630741.88 4834299.9 119.17 45
630743.47 4834298.88 119.06 32
630742.32 4834300.16 119.15 48
630742.81 4834298.78 119.1 41
630742.48 4834299.69 119.16 48
630743.14 4834299.8 119.13 46
630741.59 4834298.74 119.13 42
630746.22 4834278.06 127.83 8
630746.71 4834276.37 127.87 27
630746.39 4834277.61 127.82 5
630747.48 4834278.05 127.8 7
630746.56 4834278.32 127.8 7
630747.05 4834276.97 127.81 5
630746.72 4834276.25 127.87 16
630747.97 4834276.69 127.86 41
630746.74 4834276.21 127.89 8
630746.71 4834276.28 127.87 21
630746.55 4834277.16 127.81 5
630746.73 4834276.16 127.89 4
630746.89 4834277.42 127.82 7
630746.72 4834276.7 127.81 7
630746.71 4834276.33 127.87 24
630746.72 4834276.28 127.88 20
630746.72 4834276.31 127.87 23
630746.71 4834276.36 127.87 27
630746.73 4834276.25 127.89 13
630747.81 4834277.14 127.81 13
630746.88 4834276.25 127.9 4
630746.72 4834276.21 127.87 10
630746.72 4834277.87 127.82 7
630746.71 4834276.31 127.88 24
630747.9 4834278.21 127.8 7
630747.64 4834277.59 127.81 7
630746.71 4834276.35 127.87 26
630747.21 4834276.52 127.83 21
630762.92 4834293.33 119.04 7
630763.28 4834293.68 119.07 36
630762.4 4834292.53 119.05 7
630761.81 4834292.73 119.05 7
630761.98 4834292.27 119.05 10
630763.25 4834292.41 119.06 13
630762.75 4834293.79 119.04 20
630763.09 4834292.87 119.04 11
630761.64 4834293.2 119.06 4
630763.42 4834291.95 119.07 24
630763.61 4834292.77 119.08 29
630762.57 4834292.07 119.07 10
630763.78 4834292.31 119.08 23
630762.23 4834292.99 119.05 7
630763.11 4834294.14 119.06 36
630761.9 4834293.92 119.06 16
630762.07 4834293.45 119.05 19
630763.44 4834293.22 119.06 21
630758 4834300.82 114.32 38
630758 4834299.4 114.36 38
630758.17 4834300.36 114.31 38
630758.82 4834300.76 114.15 33
630758.5 4834299.42 114.25 36
630757.37 4834299.38 114.58 36
630757.66 4834300.34 114.48 41
630757.53 4834298.91 114.43 27
630757.83 4834299.87 114.44 41
630758.67 4834298.96 114.2 29
630758.17 4834298.93 114.28 32
630758.98 4834300.3 114.16 24
630757.2 4834299.85 114.63 33
630758.33 4834299.89 114.3 38
630759.15 4834299.83 114.16 17
630757.49 4834300.8 114.52 36
630742.9 4834291.7 119.09 0
630741.82 4834289.77 119.08 8
630742.41 4834291.58 119.1 0
630741.69 4834291.42 119.19 0
630741.65 4834290.23 119.1 1
630741.53 4834291.87 119.08 4
630741.32 4834291.15 119.09 10
630741.48 4834290.69 119.09 16
630735.57 4834287 118.51 4
630736.56 4834287.39 119.46 4
630735.9 4834287.36 119.46 4
630734.92 4834286.8 119.28 4
630736.06 4834286.9 119.56 4
630735.42 4834285.39 118.9 33
630735.25 4834285.88 119.38 7
630734.82 4834285.67 118.82 41
630736.57 4834285.48 118.91 36
630736.23 4834286.42 119.28 4
630736.07 4834285.66 118.96 32
630736.73 4834286.92 119.29 4
630735.73 4834286.59 119.28 1
630736.4 4834285.96 119.27 7
630734.65 4834286.13 118.83 33
630734.98 4834285.22 118.88 46
630736.23 4834285.2 118.86 35
630756.14 4834281.66 127.8 2
630755.03 4834282.36 127.81 5
630756.15 4834282.88 127.8 4
630755.52 4834281.03 128.34 1
630755.2 4834281.9 127.8 5
630755.98 4834282.11 127.79 4
630756.81 4834281.06 127.82 7
630756.48 4834281.97 127.8 7
630756.3 4834281.23 128.16 0
630755.37 4834281.44 127.82 4
630754.92 4834281.32 127.79 5
630756.47 4834280.77 128.05 1
630755.08 4834280.91 128.4 0
630756.65 4834281.51 127.82 7
630756.32 4834282.42 127.8 7
630754.87 4834282.82 127.79 4
630755.81 4834282.56 127.79 4
630755.17 4834278.69 127.96 4
630756.63 4834280.32 128.02 1
630756.38 4834279 127.54 10
630755.85 4834280.14 128.5 1
630755 4834279.15 128.04 45
630756.38 4834279.01 127.54 10
630756.8 4834279.85 127.82 8
630756.37 4834279.01 127.6 8
630755.68 4834280.59 128.5 1
630755.41 4834280 128.42 0
630756.38 4834279.01 127.57 8
630756.97 4834280.61 127.82 7
630755.58 4834279.5 127.81 8
630756.38 4834279 127.51 10
630755.24 4834280.46 128.41 0
630756.38 4834279.01 127.6 8
630756.38 4834278.99 127.49 10
630756.18 4834279.19 127.84 7
630754.84 4834279.6 127.89 29
630756.38 4834279 127.6 8
630756.96 4834279.41 127.97 2
630755.75 4834279.06 127.95 2
630756.38 4834279.01 127.58 10
630756.02 4834279.64 127.86 2
630754.85 4834277.97 127.84 7
630754.86 4834278.06 127.96 5
630754.85 4834277.97 127.59 8
630754.86 4834278.07 127.71 7
630754.84 4834277.97 128.26 11
630754.91 4834278.23 128.22 1
630754.85 4834278.05 128.2 7
630754.84 4834278.07 128.33 13
630754.82 4834278.18 128.39 16
630754.84 4834277.96 128.08 8
630754.82 4834278.07 128.35 20
630754.83 4834278.01 128.33 19
630754.83 4834278.12 128.37 19
630750.36 4834287.1 127.8 7
630752.21 4834286.85 127.81 4
630750.86 4834285.75 127.86 20
630751.2 4834286.16 127.83 30
630751.36 4834285.7 127.88 24
630751.53 4834285.25 127.89 39
630750.53 4834286.65 127.81 7
630751.03 4834286.61 127.82 7
630751.62 4834287.25 127.82 7
630752.27 4834285.45 127.83 41
630751.78 4834286.8 127.8 7
630750.87 4834287.06 127.81 7
630751.95 4834286.35 127.83 38
630750.69 4834286.2 127.82 23
630752.54 4834285.96 128.02 29
630751.02 4834285.3 127.91 21
630752.11 4834285.91 128.03 42
630752.05 4834287.31 127.81 7
630752.38 4834286.4 127.84 39
630755.48 4834283.47 127.79 5
630755.5 4834284.69 127.8 8
630756.9 4834283.01 127.8 4
630756.83 4834284.45 127.82 11
630755.66 4834284.23 127.8 4
630756.99 4834284 127.83 5
630755.99 4834283.33 127.81 5
630754.98 4834284.83 127.79 7
630756.4 4834284.38 127.79 7
630755.65 4834283.02 127.78 5
630755.83 4834283.78 127.81 7
630756.57 4834283.92 127.78 8
630756.74 4834283.47 127.79 7
630756.66 4834284.91 127.82 27
630755.32 4834283.93 127.8 7
630755.15 4834284.38 127.79 4
630756.24 4834284.83 127.79 7
630755.34 4834285.14 127.79 11
630758.38 4834286.44 119.38 35
630758.21 4834286.9 119.34 39
630758.05 4834286.04 119.22 29
630757.19 4834286.21 119.09 4
630758.93 4834287 119.24 35
630759.26 4834286.09 119.3 39
630757.53 4834285.28 119.09 8
630757.36 4834285.75 119.09 10
630758.71 4834285.51 119.38 41
630757.89 4834286.5 119.21 29
630758.22 4834285.57 119.2 30
630758.55 4834285.97 119.37 43
630758.04 4834287.37 119.32 36
630757.72 4834286.96 119.26 14
630759.1 4834286.54 119.25 38
630744.67 4834298.93 119.04 27
630745.6 4834299.81 119.05 29
630743.77 4834299.42 119.09 41
630745.77 4834299.35 119.03 14
630745.43 4834300.27 119.09 41
630743.6 4834299.88 119.13 42
630744.5 4834299.39 119.06 35
630743.93 4834298.96 119.07 38
630744.17 4834300.3 119.1 45
630745.27 4834300.73 119.09 42
630744.33 4834299.84 119.09 41
630744 4834300.76 119.13 49
630744.62 4834300.48 119.13 49
630744.95 4834299.56 119.06 35
630745.12 4834299.1 119.05 17
630744.79 4834300.02 119.09 43
630727.65 4834292.91 117.25 70
630727.13 4834292.9 117.25 48
630727.48 4834293.37 117.25 36
630727.81 4834292.44 117.24 64
630727.3 4834292.44 117.25 36
630727.31 4834293.83 117.24 70
630726.96 4834293.35 117.24 43
630726.79 4834293.81 117.25 38
630735.72 4834289.65 118.9 33
630735.06 4834288.43 119.35 1
630735.07 4834289.63 118.98 23
630736.34 4834289.2 118.81 26
630736.23 4834288.26 118.75 2
630735.24 4834289.16 118.91 38
630735.24 4834287.92 118.62 0
630734.73 4834289.34 118.94 45
630735.89 4834289.18 118.72 17
630736.51 4834288.74 118.83 11
630735.4 4834287.52 119.54 16
630734.59 4834287.72 119.41 5
630736.06 4834288.75 119.29 4
630736.39 4834287.85 119.51 10
630735.73 4834287.8 119.2 1
630734.9 4834288.86 118.75 30
630735.4 4834288.72 119.16 7
630746.21 4834292.98 126.93 1
630746.37 4834292.58 127.89 43
630746.53 4834292.13 127.83 43
630747.12 4834292.56 127.83 43
630745.92 4834292.52 127.87 43
630747.56 4834292.73 127.88 45
630747.72 4834292.27 127.82 32
630746.09 4834292.07 127.81 39
630746.95 4834293.02 127.88 35
630747.28 4834292.11 127.81 14
630748.05 4834293.44 127.86 20
630747.39 4834293.18 127.95 2
630731.98 4834293.26 114.22 33
630732.15 4834292.79 114.24 36
630732.27 4834293.91 114.15 0
630730.41 4834293.66 114.16 17
630730.75 4834292.74 114.16 23
630731.81 4834293.72 114.23 35
630730.58 4834293.2 114.16 21
630731.47 4834292.31 114.27 42
630731.14 4834293.23 114.25 42
630730.92 4834292.27 114.15 17
630730.24 4834294.13 114.17 5
630730.97 4834293.7 114.24 41
630731.3 4834292.77 114.26 39
630759.46 4834309.28 117.14 255
630759.9 4834309.49 117.23 238
630733.06 4834293.84 117.42 38
630733.41 4834294.13 117.4 11
630733.58 4834293.67 117.45 38
630734.23 4834293.7 117.44 38
630734.4 4834293.24 117.44 42
630733.23 4834293.38 117.41 41
630733.39 4834292.93 117.42 41
630734.08 4834292.3 117.44 45
630732.59 4834293.15 117.46 24
630733.73 4834292.01 117.43 38
630734.56 4834292.79 117.47 41
630733.91 4834292.75 117.44 42
630732.93 4834292.23 117.48 42
630732.76 4834292.69 117.47 36
630733.75 4834293.21 117.43 35
630732.43 4834293.61 117.46 26
630733.56 4834292.47 117.44 38
630744.86 4834279.21 119.15 30
630744.51 4834279.27 119.1 20
630744.89 4834279.08 119.17 32
630744.86 4834279.23 119.15 29
630744.89 4834278.98 119.16 32
630744.93 4834278.66 119.15 35
630744.7 4834279.92 119.12 17
630743.6 4834279.75 119.07 8
630744.01 4834280.65 119.1 17
630744.97 4834278.56 119.2 35
630744.86 4834279.18 119.15 30
630744.96 4834278.65 119.19 35
630744.91 4834278.8 119.14 35
630744.87 4834279.19 119.16 30
630745.03 4834279.01 119.12 43
630744.86 4834279.16 119.15 30
630744.95 4834278.5 119.15 35
630744.87 4834279.12 119.15 33
630744.88 4834279.03 119.15 32
630744.88 4834279.12 119.16 30
630744.92 4834278.86 119.19 35
630744.92 4834278.74 119.15 35
630744.85 4834279.25 119.16 29
630744.86 4834279.22 119.15 30
630744.85 4834279.24 119.15 29
630744.53 4834280.38 119.11 20
630744.97 4834278.41 119.16 35
630743.94 4834278.83 119.1 29
630744.94 4834278.58 119.15 36
630744.93 4834278.8 119.18 35
630743.77 4834279.29 119.1 24
630744.85 4834279.25 119.15 27
630744.9 4834278.86 119.15 33
630744.89 4834278.92 119.16 33
630744.18 4834280.19 119.09 14
630744.89 4834279.03 119.17 32
630744.9 4834278.98 119.17 33
630744.68 4834278.82 119.13 41
630744.99 4834278.46 119.2 33
630744.87 4834279.08 119.15 32
630744.34 4834279.73 119.1 17
630744.86 4834279.24 119.15 29
630744.87 4834279.46 119.12 19
630745.2 4834278.55 119.13 43
630744.91 4834278.92 119.18 35
630744.87 4834279.16 119.16 30
630744.94 4834278.73 119.19 36
630758.12 4834309.65 114.2 11
630757.07 4834309.21 114.2 0
630758.59 4834309.73 114.19 24
630753.53 4834290.13 127.84 36
630754.42 4834289.82 127.87 33
630754.37 4834291.27 128 35
630754.09 4834290.74 128.06 64
630753.7 4834289.68 127.86 39
630752.67 4834291.22 128.46 1
630753.2 4834291.06 128.18 1
630753.37 4834290.58 127.83 4
630754.53 4834290.81 127.93 36
630753.04 4834291.53 128.36 1
630753.76 4834291.63 127.82 32
630754.26 4834290.28 127.92 27
630754.2 4834291.73 128.06 52
630753 4834290.28 127.81 4
630753.93 4834291.19 127.93 35
630753.17 4834289.82 127.8 2
630754.7 4834290.35 127.92 24
630752.84 4834290.73 127.81 2
630741.63 4834278.46 119.18 17
630743.26 4834278.8 119.15 16
630743.27 4834278.64 119.12 13
630743.44 4834280.21 119.07 7
630743.26 4834278.77 119.15 14
630743.25 4834278.75 119.13 16
630742.96 4834280.19 119.05 8
630743.25 4834278.82 119.15 16
630743.3 4834278.51 119.16 14
630743.29 4834278.5 119.13 13
630741.63 4834278.43 119.17 17
630743.32 4834278.44 119.17 16
630743.3 4834278.56 119.16 14
630742.01 4834279.21 119.18 1
630741.62 4834278.45 119.17 17
630742.18 4834278.75 119.15 2
630743.25 4834278.84 119.15 16
630743.27 4834278.6 119.12 13
630742.79 4834280.65 119.05 7
630741.63 4834278.42 119.19 16
630743.25 4834278.82 119.14 16
630742.02 4834280.48 119.1 35
630741.63 4834278.41 119.17 17
630743.26 4834278.72 119.12 16
630741.33 4834278.93 119.69 1
630741.62 4834278.46 119.17 17
630743.29 4834278.62 119.15 14
630742.52 4834279.11 119.11 35
630741.5 4834278.43 119.14 21
630743.28 4834278.67 119.14 14
630743.46 4834278.81 119.11 17
630743.27 4834278.71 119.15 16
630743.28 4834278.55 119.13 13
630743.29 4834279.29 119.37 71
630741.62 4834278.47 119.19 17
630743.26 4834278.75 119.15 14
630741.84 4834279.72 119.75 0
630741.62 4834278.47 119.18 17
630742.35 4834279.56 119.1 24
630743.25 4834278.78 119.13 16
630743.3 4834278.44 119.12 13
630743.13 4834279.73 119.06 16
630741.63 4834278.44 119.18 17
630743.26 4834278.69 119.12 14
630742.68 4834278.65 119.12 41
630743.25 4834278.8 119.14 16
630742.18 4834280.02 119.1 30
630743.25 4834278.83 119.15 16
630746.81 4834284.66 127.83 33
630746.91 4834283.17 127.8 8
630747.3 4834283.3 127.8 8
630747.14 4834283.77 127.91 24
630747.98 4834283.53 127.79 8
630748.02 4834284.72 127.82 7
630745.94 4834283.64 128.05 38
630747.81 4834283.99 127.81 10
630746.74 4834283.63 127.8 10
630746.57 4834284.1 128.04 27
630747.64 4834284.47 128.15 98
630746.65 4834285.12 127.84 38
630746.25 4834284.99 127.81 29
630747.48 4834284.9 127.81 8
630746.11 4834283.17 127.82 10
630746.97 4834284.22 127.97 26
630746.41 4834284.54 127.81 14
630738.39 4834297.36 119.19 42
630737.66 4834298.09 119.15 42
630737.82 4834297.62 119.2 49
630737.11 4834297.7 119.21 46
630738.98 4834297.57 119.17 36
630738.56 4834296.9 119.17 38
630737.44 4834296.78 119.22 45
630738.16 4834296.69 119.18 36
630738.06 4834298.27 119.09 26
630738.64 4834298.49 119.11 29
630737.28 4834297.24 119.23 49
630737.99 4834297.16 119.18 39
630738.72 4834296.44 119.14 35
630738.81 4834298.03 119.19 48
630736.94 4834298.19 119.89 123
630737.49 4834298.55 119.1 4
630736.92 4834296.75 119.23 46
630738.22 4834297.82 119.22 46
630752.34 4834292.12 128.4 1
630750.46 4834293.57 127.84 41
630751.85 4834293.43 127.8 14
630751.11 4834293.22 127.81 7
630752.18 4834292.53 127.79 7
630750.78 4834294.13 127.85 14
630751.44 4834292.32 127.83 10
630752.38 4834293.31 127.8 7
630750.79 4834292.67 127.8 11
630752.02 4834292.98 127.81 11
630752.22 4834293.76 127.82 10
630752.55 4834292.85 127.81 7
630751.69 4834293.88 127.8 5
630751.27 4834292.77 127.81 14
630750.95 4834293.68 127.84 41
630750.62 4834293.12 127.8 7
630740.26 4834302.42 119.25 41
630741.05 4834302.19 119.19 38
630740.72 4834303.11 119.37 27
630739.4 4834301.36 119.19 41
630739.99 4834301.82 119.18 38
630740.6 4834301.49 119.17 41
630740.43 4834301.95 119.2 38
630739.65 4834302.74 119.35 30
630739.24 4834301.82 119.21 41
630740.88 4834302.65 119.23 39
630739.07 4834302.28 119.26 36
630740.15 4834301.36 119.15 38
630740.76 4834301.03 119.16 41
630740.09 4834302.88 119.4 10
630739.82 4834302.28 119.22 36
630741.22 4834301.73 119.17 38
630748.14 4834283.08 127.79 8
630748.88 4834284.41 128.34 1
630748.35 4834283.83 128.06 17
630749.92 4834284.87 127.92 19
630749.39 4834283.01 127.8 7
630748.18 4834284.29 128.15 38
630748.52 4834283.37 127.98 16
630749.47 4834283.99 127.81 8
630749.14 4834284.93 128.34 1
630749.8 4834283.09 127.82 7
630750.25 4834283.96 127.8 7
630749.22 4834283.47 127.82 7
630749.64 4834283.54 127.82 7
630748.72 4834284.86 128.34 1
630748.68 4834282.92 127.97 23
630750.09 4834284.41 127.81 8
630749.31 4834284.48 128.35 1
630749.06 4834283.92 127.78 8
630767.37 4834285.1 119.37 30
630767.57 4834285.07 119.35 41
630767.38 4834285.06 119.38 29
630767.37 4834285.02 119.36 29
630767.41 4834284.75 119.32 13
630767.41 4834284.86 119.38 16
630767.39 4834284.86 119.38 21
630767.41 4834284.73 119.18 10
630767.36 4834285.1 119.34 32
630767.36 4834285.13 119.34 30
630766.11 4834284.59 119.38 38
630767.37 4834284.97 119.38 27
630767.39 4834284.97 119.41 24
630767.42 4834284.73 118.96 10
630767.38 4834285.02 119.39 29
630767.43 4834284.82 118.91 10
630767.4 4834284.92 119.41 20
630767.43 4834284.81 119.14 10
630766.76 4834284.06 119.42 0
630768.31 4834285.01 119.39 0
630766.59 4834284.52 119.4 35
630767.36 4834285.06 119.35 30
630767.42 4834284.82 119.31 11
630767.15 4834285.02 119.35 43
630767.38 4834284.92 119.38 27
630767.4 4834284.8 119.37 19
630767.36 4834285.13 119.36 29
630766.43 4834284.97 119.32 43
630739.39 4834284.06 114.18 14
630739.73 4834283.14 114.25 21
630740.39 4834283.47 114.18 13
630739.31 4834282.94 114.23 24
630740.22 4834283.93 114.18 11
630739.56 4834283.6 114.2 13
630740.56 4834283 114.18 14
630740.05 4834284.4 114.18 16
630739.14 4834283.4 114.24 21
630755.98 4834304.94 114.19 20
630755.18 4834304.13 114.18 13
630755.34 4834303.67 114.31 20
630756.15 4834304.52 115.17 36
630755.69 4834304.02 114.3 21
630755.85 4834303.58 114.8 33
630755.51 4834303.22 114.54 42
630756.49 4834305 114.45 41
630755.01 4834304.6 114.18 8
630756.82 4834304.1 114.92 33
630756.32 4834304.06 115.27 43
630756.99 4834303.63 114.82 35
630756.49 4834303.58 115.02 41
630755.52 4834304.47 114.19 4
630756.66 4834304.56 114.92 33
630750.54 4834287.96 127.81 7
630750.38 4834288.41 127.81 5
630751.55 4834288.68 127.81 7
630751.72 4834288.22 127.81 7
630750.8 4834289.51 127.81 7
630751.22 4834289.59 127.81 7
630752.44 4834288.14 127.81 7
630751.94 4834289.5 127.79 7
630752.27 4834288.59 127.79 7
630752.11 4834289.04 127.81 7
630752.42 4834289.59 127.82 5
630751.29 4834288.16 127.81 7
630751.13 4834288.6 127.8 7
630750.96 4834289.06 127.8 7
630750.71 4834287.51 127.82 7
630751.45 4834287.7 127.81 7
630751.39 4834289.14 127.81 7
630751.88 4834287.77 127.81 7
630765.64 4834292.36 119.12 36
630764.9 4834292.43 119.09 41
630764.48 4834292.36 119.08 35
630765.07 4834291.98 119.1 41
630764.65 4834291.91 119.08 35
630765.3 4834293.28 119.12 35
630764.15 4834293.28 119.07 32
630766.04 4834292.54 119.15 33
630763.98 4834293.74 119.06 27
630764.74 4834292.89 119.09 38
630764.57 4834293.35 119.08 41
630765.14 4834293.74 119.11 35
630765.71 4834293.45 119.14 35
630764.41 4834293.81 119.08 36
630765.8 4834291.91 119.11 36
630765.88 4834293 119.15 30
630764.31 4834292.82 119.07 35
630765.55 4834293.92 119.15 35
630765.47 4834292.82 119.11 35
630759.97 4834297.79 119.07 27
630759.8 4834298.26 119.09 26
630761.25 4834297.93 119.11 33
630759.65 4834296.46 119.08 17
630759.48 4834296.92 119.07 8
630761.08 4834298.39 119.14 30
630760.9 4834296.68 119.08 8
630760.57 4834297.6 119.09 33
630760.47 4834296.41 119.06 10
630761.42 4834297.47 119.08 35
630760.24 4834298.52 119.1 27
630760.4 4834298.06 119.12 30
630760.3 4834296.87 119.06 7
630760.74 4834297.14 119.06 11
630760.14 4834297.33 119.06 10
630726.65 4834295.66 117.25 212
630727.14 4834294.29 117.24 64
630726.48 4834296.12 117.24 4
630726.81 4834295.21 117.25 199
630726.63 4834294.27 117.25 35
630726.46 4834294.73 117.25 23
630726.29 4834295.19 117.25 20
630726.98 4834294.75 117.24 38
630726.12 4834295.65 117.24 2
630754.54 4834283.73 127.8 11
630754.05 4834285.09 127.82 7
630754.26 4834283.14 127.78 5
630752.77 4834284.09 127.78 7
630754.7 4834283.27 127.8 5
630752.87 4834285.04 127.82 10
630753.92 4834284.05 127.78 4
630753.1 4834283.18 127.78 7
630753.03 4834284.59 127.81 7
630753.52 4834283.24 127.8 10
630752.61 4834284.54 127.79 7
630753.36 4834283.69 127.8 5
630754.38 4834284.18 127.8 7
630753.76 4834284.51 127.8 7
630754.21 4834284.64 127.81 7
630753.59 4834284.96 127.8 7
630754.09 4834283.6 127.79 5
630752.94 4834283.63 127.79 4
630753.19 4834284.14 127.81 7
630741.43 4834285.74 119.09 10
630742.04 4834287.26 119.08 8
630742.16 4834285.71 119.06 8
630742.54 4834285.89 119.09 10
630742.37 4834286.35 119.07 11
630742 4834286.17 119.06 8
630741.83 4834286.63 119.05 8
630742.21 4834286.81 119.08 10
630741.6 4834285.29 119.13 11
630742.83 4834287 119.09 0
630742.33 4834285.25 119.07 7
630742.7 4834285.43 119.09 10
630741.66 4834287.09 119.06 10
630739.56 4834299.46 120.49 189
630739.39 4834299.9 120.08 203
630739.73 4834298.98 120.05 11
630751.28 4834296 119.07 11
630751.25 4834294.75 119.13 14
630751.78 4834294.62 119.12 1
630752.45 4834296.2 119.07 10
630751.62 4834295.08 119.1 17
630750.51 4834294.53 119.12 38
630751.45 4834295.54 119.08 14
630752.17 4834295.65 119.08 10
630750.91 4834295.66 119.06 14
630750.74 4834296.12 119.03 11
630752 4834296.11 119.06 11
630751.08 4834295.21 119.09 13
630752.34 4834295.19 119.09 33
630750.34 4834294.99 119.07 23
630735.29 4834278.27 114.17 0
630736.32 4834277.46 114.15 10
630736.68 4834277.92 114.17 13
630736.51 4834278.39 114.16 8
630736.15 4834277.92 114.16 11
630735.99 4834278.39 114.15 10
630735.45 4834277.81 114.16 0
630759.32 4834299.37 114.16 11
630759.76 4834299.64 114.17 10
630760.98 4834299.84 114.16 10
630760.27 4834300.43 114.16 11
630761.49 4834300.39 114.17 10
630759.93 4834299.17 114.15 8
630760.81 4834300.31 114.17 10
630760.65 4834300.77 114.17 11
630759.59 4834300.1 114.15 10
630759.43 4834300.57 114.15 10
630761.32 4834300.85 114.16 8
630760.43 4834299.96 114.16 11
630760.6 4834299.5 114.15 1
630760.1 4834300.89 114.14 11
630739.14 4834278.2 114.17 11
630740.24 4834278.25 114.16 0
630756.36 4834302.18 114.68 30
630756.19 4834302.64 114.65 41
630755.36 4834301.61 114.39 42
630756.02 4834301.84 114.49 41
630756.65 4834303.11 114.71 35
630756.02 4834303.11 114.73 23
630755.68 4834302.76 114.47 43
630754.86 4834303.04 115.32 5
630756.18 4834301.37 114.51 43
630756.99 4834302.18 114.58 38
630756.53 4834301.71 114.73 33
630755.2 4834302.08 114.39 43
630755.85 4834302.3 114.48 46
630756.7 4834301.25 114.72 24
630755.03 4834302.54 114.38 1
630756.35 4834300.91 114.5 41
630755.53 4834301.15 114.4 46
630756.82 4834302.64 114.62 36
630750.38 4834280.28 127.81 38
630751.11 4834279.48 127.84 38
630752.23 4834278.53 128.03 77
630751.74 4834279.87 127.77 7
630751.91 4834279.42 127.83 39
630751.44 4834278.57 127.91 33
630751.58 4834280.32 127.8 35
630751.04 4834278.46 127.9 45
630750.94 4834279.93 127.81 14
630752.31 4834279.58 127.8 7
630751.98 4834280.49 127.8 21
630751.27 4834279.02 127.87 27
630750.55 4834279.82 127.83 38
630750.88 4834278.92 127.87 41
630752.14 4834280.04 127.78 2
630750.78 4834280.38 127.8 4
630752.47 4834279.14 127.88 24
630752.07 4834278.97 127.9 27
630750.71 4834279.37 127.86 41
630760.56 4834283.84 119.42 33
630760.4 4834284.29 119.39 38
630760.97 4834283.13 119.32 35
630761 4834283.06 119.32 30
630760.95 4834283.36 119.38 41
630760.94 4834283.38 119.39 41
630760.99 4834283.02 119.31 29
630760.93 4834285.08 119.28 36
630761.01 4834283 119.33 27
630760.99 4834283.16 119.33 33
630759.54 4834283.21 119.41 30
630760.95 4834283.34 119.37 39
630760.96 4834283.25 119.36 36
630760.99 4834283.11 119.32 33
630761.26 4834284.17 119.38 35
630761 4834282.96 119.32 26
630760.94 4834283.39 119.39 41
630761.51 4834284.81 119.26 39
630760.97 4834283.27 119.36 38
630759.38 4834283.67 119.43 33
630760.27 4834283.34 119.38 49
630761.02 4834282.92 119.36 23
630760.94 4834283.35 119.37 39
630760.23 4834284.75 119.35 36
630760.94 4834283.36 119.38 39
630760.95 4834283.31 119.37 38
630760.94 4834283.37 119.39 39
630760.1 4834283.8 119.41 35
630760.96 4834283.21 119.34 35
630760.98 4834283.08 119.32 33
630760.73 4834283.37 119.4 48
630760.98 4834283.2 119.34 33
630760.97 4834283.17 119.33 35
630759.93 4834284.26 119.41 29
630761.43 4834283.71 119.39 45
630759.76 4834284.72 119.37 36
630761.1 4834284.62 119.31 35
630760.95 4834283.28 119.36 38
630760.96 4834283.3 119.37 38
630760.97 4834283.24 119.35 33
630760.96 4834283.33 119.37 39
630737.99 4834278.12 114.16 11
630737.57 4834277.94 114.15 11
630738.65 4834278.39 114.15 13
630738.16 4834277.66 114.18 2
630736.84 4834277.46 114.17 11
630737.4 4834278.4 114.15 10
630761.97 4834290.02 119.08 5
630763.06 4834290.69 119.06 7
630763.76 4834291.02 119.05 8
630761.8 4834290.48 119.06 10
630763.59 4834291.49 119.06 8
630763.4 4834289.77 119.07 2
630762.73 4834291.61 119.07 11
630762.32 4834291.34 119.06 11
630763.23 4834290.23 119.07 4
630762.66 4834290.41 119.05 5
630762.49 4834290.87 119.05 13
630762.9 4834291.15 119.07 23
630761.64 4834290.93 119.08 36
630762.82 4834289.95 119.05 4
630762.15 4834291.81 119.05 10
630744.14 4834297.05 119.04 30
630744.6 4834297.12 119.06 29
630745.62 4834297.72 119.06 32
630745.29 4834298.64 119.04 19
630743.81 4834297.97 119.05 30
630745.34 4834297.09 119.04 23
630744.26 4834298.04 119.03 23
630743.98 4834297.51 119.05 20
630744.43 4834297.58 119.04 21
630743.64 4834296.5 119.05 33
630744.83 4834298.47 119.02 16
630745 4834298.01 119.03 16
630745.17 4834297.55 119.05 33
630745.5 4834296.63 119.05 30
630744.31 4834296.59 119.06 33
630745.45 4834298.18 119.05 11
630743.64 4834298.42 119.04 35
630745.79 4834297.26 119.04 26
630744.1 4834298.5 119.06 30
630744.76 4834296.66 119.06 33
630754.38 4834294.01 119.14 21
630754.54 4834293.55 119.13 21
630754.71 4834293.09 119.11 36
630747.58 4834279.11 127.8 10
630746.39 4834278.78 127.82 11
630747.25 4834280.01 127.81 10
630745.89 4834278.96 127.85 33
630746.23 4834279.23 127.82 7
630746.06 4834278.51 127.84 10
630746.65 4834280.32 127.8 8
630747.09 4834280.47 127.8 5
630747.14 4834278.96 127.8 8
630747.31 4834278.5 127.8 7
630746.98 4834279.41 127.8 7
630746.81 4834279.87 127.79 7
630747.9 4834280.45 127.78 10
630747.74 4834278.66 127.82 8
630746.07 4834279.68 127.82 8
630747.41 4834279.57 127.8 8
630745.9 4834280.13 127.82 4
630741.06 4834296.76 119.06 21
630740.73 4834297.68 119.11 36
630740.4 4834297.1 119.07 39
630739.15 4834297.11 119.13 36
630739.9 4834298.48 119.15 45
630740.4 4834298.61 119.14 42
630740.57 4834296.64 119.06 33
630739.86 4834296.47 119.07 35
630739.2 4834298.3 119.09 24
630740.56 4834298.15 119.14 39
630740.9 4834297.22 119.08 41
630740.23 4834297.56 119.08 36
630739.53 4834297.39 119.14 36
630741.15 4834298.61 119.13 41
630739.32 4834296.64 119.1 33
630739.7 4834296.93 119.1 35
630739.37 4834297.85 119.16 43
630740.07 4834298.02 119.13 36
630758.41 4834289.78 119.12 36
630758.59 4834291.51 119.09 35
630757.75 4834291.62 119.13 36
630757.93 4834289.74 119.13 35
630758.92 4834290.59 119.07 26
630757.76 4834290.21 119.12 33
630757.21 4834289.67 119.21 23
630758.08 4834290.7 119.11 36
630757.42 4834291.13 119.1 35
630759.09 4834290.13 119.06 8
630757.59 4834290.67 119.12 35
630759.01 4834291.7 119.09 39
630757.91 4834291.16 119.12 38
630758.24 4834290.24 119.12 38
630758.75 4834291.05 119.08 36
630759.26 4834289.67 119.07 8
630759.18 4834291.25 119.09 36
630757.25 4834291.6 119.11 35
630735.03 4834299.8 119.19 35
630735.75 4834299.96 119.21 38
630736.08 4834299.04 119.16 35
630734.82 4834298.95 119.1 35
630736.28 4834300 119.18 35
630735.36 4834298.88 119.13 41
630734.65 4834299.41 119.13 20
630735.58 4834300.42 119.21 39
630736.45 4834299.54 119.19 38
630736.61 4834299.08 119.16 36
630734.86 4834300.27 119.22 45
630736.65 4834300.85 119.19 35
630734.69 4834300.73 119.27 49
630735.2 4834299.34 119.18 32
630736.11 4834300.46 119.21 33
630735.42 4834300.87 119.26 46
630735.92 4834299.5 119.2 39
630746.25 4834291.61 127.8 7
630747.18 4834290.33 127.8 7
630747.45 4834291.66 127.81 8
630747.35 4834289.88 127.8 7
630747.02 4834290.78 127.82 8
630746.75 4834290.25 127.8 7
630746.86 4834291.23 127.82 5
630746.91 4834289.81 127.8 7
630747.94 4834290.31 127.78 7
630746.23 4834289.7 127.82 8
630747.61 4834291.21 127.8 8
630747.77 4834290.76 127.79 8
630746.06 4834290.15 127.83 7
630746.69 4834291.68 127.81 7
630747.88 4834291.82 127.81 7
630746.58 4834290.71 127.8 7
630746.42 4834291.16 127.8 7
630748.05 4834291.37 127.82 8
630745.9 4834290.61 127.81 7
630765.53 4834299.46 119.4 30
630764.55 4834298.7 119.21 38
630763.88 4834300.54 119.23 42
630765.7 4834299 119.39 10
630764.38 4834299.16 119.22 39
630764.21 4834299.62 119.23 38
630764.26 4834300.81 119.29 20
630764.93 4834298.97 119.28 41
630765.2 4834300.39 119.4 24
630764.04 4834300.08 119.25 33
630765.03 4834300.84 119.39 23
630764.6 4834299.89 119.28 41
630764.43 4834300.35 119.28 42
630765.37 4834299.92 119.39 23
630764.76 4834299.43 119.28 42
630766.91 4834293.46 119.26 48
630766.73 4834292.7 119.2 43
630766.9 4834292.23 119.19 43
630766.75 4834293.92 119.27 48
630767.24 4834292.55 119.27 49
630768.21 4834292.11 119.43 8
630767.08 4834293 119.26 43
630766.23 4834294.08 119.19 41
630766.39 4834293.62 119.19 41
630767.71 4834293.48 119.42 4
630767.41 4834292.09 119.28 46
630766.21 4834292.08 119.15 30
630766.56 4834293.16 119.19 42
630752.46 4834295.11 125.71 0
630757.89 4834280.29 127.82 5
630758.3 4834280.37 127.84 5
630757.46 4834279.26 127.99 1
630758.05 4834279.85 127.89 1
630757.3 4834279.7 127.84 8
630757.14 4834280.16 127.83 7
630758.47 4834279.92 127.84 2
630762.22 4834303.13 119.19 35
630762.46 4834301.1 119.2 7
630763.38 4834301.91 119.22 35
630762.3 4834301.55 119.18 10
630762.55 4834302.21 119.2 17
630763.04 4834302.83 119.2 36
630762.39 4834302.67 119.2 24
630763.43 4834303.11 119.24 41
630762.72 4834301.75 119.19 16
630763.71 4834301 119.26 29
630763.55 4834301.45 119.24 35
630762.89 4834301.29 119.21 16
630761.79 4834302.94 119.19 30
630763.76 4834302.19 119.26 41
630763.6 4834302.65 119.25 38
630762.13 4834302.02 119.2 24
630761.96 4834302.48 119.19 29
630763.21 4834302.37 119.22 36
630738.84 4834285.78 119.11 41
630738.51 4834286.69 118.91 38
630739.01 4834285.32 119.04 35
630738.34 4834287.15 118.93 35
630738.42 4834285.58 119.13 29
630737.01 4834287.39 119.36 2
630737.51 4834285.98 118.84 39
630737.23 4834285.52 118.93 36
630736.9 4834286.37 117.84 1
630738.25 4834286.04 119.06 43
630737.75 4834287.4 118.75 38
630736.9 4834286.43 118.73 1
630737.34 4834286.48 119.45 4
630737.91 4834286.94 118.79 45
630737.06 4834285.98 118.83 33
630737.18 4834286.88 118.65 1
630737.67 4834285.53 119 42
630738.68 4834286.23 118.93 46
630738.08 4834286.49 118.93 36
630740.19 4834295.56 119.08 10
630741.07 4834295.26 119.04 11
630740.36 4834295.1 119.06 11
630740.73 4834296.18 119.05 11
630740.53 4834294.64 119.07 11
630739.49 4834296.18 119.08 33
630740.15 4834294.35 119.07 10
630739.65 4834295.72 119.08 21
630739.22 4834295.07 119.08 20
630739.82 4834295.26 119.05 10
630739.99 4834294.8 119.07 10
630740.03 4834296.01 119.07 21
630739.38 4834294.61 119.09 11
630741.24 4834294.8 119.05 10
630739.55 4834294.16 119.15 14
630740.9 4834295.72 119.06 11
630741.23 4834296.3 119.06 21
630740.69 4834294.18 119.06 11
630750.78 4834297.38 119.05 29
630751.84 4834296.57 119.06 11
630752.47 4834297.98 119.05 10
630752.29 4834296.66 119.07 10
630750.45 4834298.3 119.05 8
630751.33 4834297.95 119.03 8
630752.12 4834297.11 119.05 10
630751.96 4834297.57 119.06 13
630751.67 4834297.03 119.04 11
630751.12 4834296.46 119.06 11
630750.95 4834296.92 119.05 19
630750.62 4834297.84 119.03 5
630751.79 4834298.03 119.05 14
630750.58 4834296.58 119.04 11
630751.63 4834298.49 119.05 8
630751.5 4834297.49 119.03 13
630751.17 4834298.41 119.03 10
630752.3 4834298.44 119.04 10
630750.41 4834297.04 119.05 11
630743.31 4834297.4 119.06 29
630742.26 4834296.9 119.05 33
630743.47 4834296.95 119.05 32
630742.72 4834297.6 119.05 39
630741.76 4834298.28 119.1 41
630743.14 4834297.86 119.06 38
630741.49 4834297.69 119.05 35
630742.09 4834297.36 119.06 35
630741.92 4834297.82 119.07 43
630742.39 4834298.52 119.06 38
630742.98 4834298.32 119.07 35
630741.32 4834298.15 119.08 41
630742.89 4834297.14 119.05 38
630742.55 4834298.06 119.07 35
630743.05 4834296.68 119.05 35
630741.82 4834296.77 119.05 29
630742.42 4834296.44 119.07 33
630741.66 4834297.23 119.04 30
630737.35 4834291.81 114.28 49
630737.51 4834291.35 114.29 21
630738.05 4834291.26 114.23 4
630736.87 4834291.04 114.22 11
630737.88 4834291.72 114.23 27
630738.55 4834289.87 114.2 5
630738.38 4834290.33 114.22 0
630729.06 4834297.58 119.14 23
630728.06 4834297.1 119.2 32
630729.46 4834298.06 119.14 41
630728.41 4834297.47 119.19 38
630729.79 4834297.14 119.08 35
630728.74 4834296.55 119.17 19
630728.57 4834297.01 119.17 35
630729.29 4834298.52 119.2 42
630728.72 4834298.5 119.2 41
630729.63 4834297.6 119.11 23
630728.08 4834298.39 119.26 45
630727.89 4834297.56 119.24 42
630729.39 4834296.66 119.1 20
630729.96 4834296.68 119.14 2
630728.89 4834298.04 119.17 39
630728.23 4834296.64 119.19 33
630728.24 4834297.93 119.22 41
630729.22 4834297.12 119.11 24
630731.81 4834291.38 114.25 41
630731.97 4834290.92 114.25 41
630731.59 4834290.42 114.16 27
630731.26 4834291.35 114.16 21
630732.14 4834290.45 114.23 36
630732.31 4834289.99 114.23 33
630731.42 4834290.89 114.16 24
630731.64 4834291.85 114.24 41
630731.09 4834291.81 114.16 17
630731.76 4834289.96 114.17 14
630744.93 4834296.2 119.05 35
630744.98 4834294.76 119.05 30
630745.26 4834295.27 119.05 30
630744.3 4834294.68 119.06 29
630745.6 4834294.36 119.08 38
630745.1 4834295.73 119.06 35
630745.67 4834296.17 119.03 27
630744.46 4834294.22 119.07 35
630743.89 4834294.38 119.06 33
630745.43 4834294.82 119.06 27
630744.48 4834296.13 119.05 30
630744.81 4834295.22 119.05 14
630743.8 4834296.05 119.06 30
630743.73 4834294.84 119.04 29
630745.14 4834294.3 119.1 17
630744.64 4834295.67 119.04 33
630744.13 4834295.13 119.06 35
630743.96 4834295.59 119.07 33
630755.41 4834300.26 119.67 1
630755.74 4834299.36 119.84 1
630755.09 4834298.97 119.07 20
630755.58 4834299.81 119.8 1
630755.91 4834298.9 119.86 0
630755.25 4834300.7 119.19 2
630754.93 4834299.43 119.08 16
630733.73 4834282.77 119.14 29
630733.58 4834281.95 119.13 41
630734.23 4834281.4 119.16 16
630732.62 4834282.52 119.14 36
630733.92 4834281.03 119.14 36
630732.72 4834281.01 119.2 36
630733.41 4834282.41 119.13 39
630733.29 4834280.68 119.16 35
630734.06 4834281.85 119.15 14
630732.55 4834281.47 119.2 36
630732.79 4834282.06 119.15 38
630733.12 4834281.14 119.15 38
630734.39 4834280.94 119.14 10
630732.95 4834281.61 119.16 42
630733.24 4834282.87 119.12 39
630732.38 4834281.93 119.19 36
630733.9 4834282.31 119.14 27
630733.75 4834281.49 119.14 35
630731.8 4834281.52 119.38 35
630731.3 4834282.9 119.36 26
630731.97 4834281.06 119.35 36
630731.14 4834281.98 119.36 1
630732.05 4834282.86 119.17 33
630731.16 4834281.89 118.13 0
630731.47 4834282.44 119.36 33
630732.21 4834282.4 119.19 36
630732.78 4834288.88 119.08 38
630733.28 4834287.5 118.97 43
630732.74 4834287.48 118.88 17
630733.65 4834288.89 119.01 32
630733.98 4834287.96 118.8 48
630733.92 4834289.55 119.02 33
630732.62 4834289.34 119.04 38
630734.26 4834288.61 118.88 38
630733.11 4834287.96 119.01 36
630732.57 4834287.93 118.87 17
630734.15 4834287.5 118.8 41
630733.81 4834288.42 118.87 38
630732.41 4834288.39 118.9 19
630733.48 4834289.35 119.02 38
630734.09 4834289.08 118.99 36
630732.95 4834288.42 119.05 35
630734.42 4834288.15 118.8 41
630740.1 4834288.03 119.07 10
630740.44 4834288.51 119.08 13
630741.16 4834288.46 119.07 10
630740.83 4834289.37 119.07 10
630740.27 4834287.57 119.08 14
630739.35 4834287.9 119.91 0
630739.6 4834289.4 119.08 8
630741.22 4834289.54 119.1 26
630741 4834288.91 119.06 7
630740.77 4834287.59 119.13 8
630740.1 4834289.43 119.09 10
630740.6 4834288.05 119.09 11
630740.27 4834288.97 119.08 17
630739.18 4834288.36 119.91 1
630739.93 4834288.48 119.08 7
630739.77 4834288.94 119.06 5
630735.18 4834292.35 117.51 39
630735.02 4834292.81 117.51 42
630734.73 4834292.33 117.47 33
630734.85 4834293.27 117.49 42
630735.59 4834293.26 117.35 0
630735.93 4834292.31 116.93 0
630734.68 4834293.74 117.49 43
630735.42 4834293.72 117.37 0
630734.58 4834296.02 117.36 10
630734.92 4834295.1 117.37 5
630734.75 4834295.56 117.36 8
630735.25 4834294.18 117.36 1
630735.09 4834294.64 117.36 2
630734.45 4834277.45 119.17 21
630733.13 4834277.83 119.3 38
630733.54 4834276.23 119.36 30
630732.49 4834278.3 119.41 0
630734.29 4834277.91 119.17 20
630733.54 4834276.27 119.37 30
630733.53 4834276.3 119.36 30
630732.66 4834277.84 119.38 0
630734.4 4834276.4 119.22 32
630733.53 4834276.29 119.35 32
630734.12 4834278.37 119.16 23
630734.06 4834277.32 119.18 20
630733.53 4834276.28 119.37 30
630733.53 4834276.26 119.36 30
630733.63 4834276.45 119.3 35
630732.99 4834276.91 119.39 1
630733.16 4834276.45 119.41 1
630733.54 4834276.17 119.36 29
630732.97 4834278.29 119.29 38
630733.9 4834277.79 119.16 17
630732.82 4834277.38 119.41 11
630733.54 4834276.2 119.36 30
630733.54 4834276.25 119.37 29
630733.53 4834276.3 119.35 30
630733.47 4834276.91 119.3 38
630733.73 4834278.25 119.16 20
630733.55 4834276.19 119.38 30
630734.23 4834276.86 119.19 30
630733.3 4834277.37 119.3 41
630733.53 4834276.28 119.36 32
630733.54 4834276.22 119.37 29
630757.08 4834309.32 117.22 60
630757.24 4834308.86 117.23 253
630758.29 4834309.29 117.18 255
630757.81 4834308.77 117.32 253
630758.46 4834308.83 117.22 4
630758.76 4834309.37 117.17 255
630758.92 4834308.92 117.23 54
630758.59 4834309.83 117.2 2
630758.13 4834309.75 117.2 17
630757.64 4834309.23 117.23 76
630759.29 4834309.75 117.21 200
630737.28 4834283.33 114.17 13
630737.78 4834283.81 114.15 14
630738.8 4834284.32 114.15 8
630737.95 4834283.35 114.14 11
630738.97 4834283.86 114.22 14
630738.22 4834283.82 114.17 8
630736.95 4834283.05 114.49 10
630738.39 4834283.36 114.23 17
630759.28 4834283.01 119.4 23
630757.15 4834285.11 119.15 0
630758.37 4834282.96 119.15 36
630758.89 4834283.75 119.31 35
630758.72 4834284.2 119.24 41
630759.29 4834282.95 119.41 23
630759.29 4834282.98 119.4 23
630758.56 4834284.66 119.21 32
630759.3 4834282.96 119.41 23
630759.29 4834282.92 119.4 23
630759.28 4834283.01 119.41 23
630757.82 4834283.26 119.14 10
630757.32 4834284.64 119.09 2
630759.29 4834283 119.41 21
630759.28 4834283.03 119.41 23
630759.28 4834283.02 119.41 23
630757.7 4834284.82 119.09 10
630758.04 4834283.88 119.12 20
630759.05 4834284.58 119.37 45
630757.49 4834284.18 119.08 1
630759.21 4834284.13 119.41 33
630759.3 4834282.94 119.41 21
630758.2 4834283.42 119.12 21
630759.28 4834283 119.4 23
630758.39 4834285.12 119.21 29
630759.29 4834282.98 119.41 23
630759.06 4834283.29 119.4 33
630758.88 4834285.04 119.35 46
630759.28 4834283.03 119.4 23
630757.87 4834284.35 119.1 23
630757.66 4834283.72 119.12 4
630759.43 4834307.61 119.19 35
630759.59 4834307.15 119.18 23
630761.23 4834305.89 119.17 41
630760.12 4834307.53 119.2 33
630760.63 4834306.16 119.57 10
630761.37 4834307.43 119.16 41
630759.76 4834306.69 119.17 38
630760.46 4834306.6 119.15 42
630760.9 4834306.8 119.16 35
630760.29 4834307.06 119.16 21
630761.06 4834306.35 119.18 36
630760.73 4834307.26 119.17 39
630761.39 4834305.43 119.18 36
630761.54 4834306.97 119.16 41
630760.79 4834305.69 119.24 10
630762.67 4834284.91 119.21 38
630761.84 4834283.89 119.39 38
630762.63 4834283.57 119.36 39
630762.6 4834283.81 119.38 32
630762.68 4834283.26 119.31 11
630763.33 4834284.94 119.22 36
630762.61 4834283.73 119.37 36
630762 4834283.43 119.36 42
630762.65 4834283.46 119.36 33
630762.7 4834283.67 119.35 46
630762.64 4834283.65 119.37 36
630762.65 4834283.61 119.36 38
630762.61 4834283.76 119.37 35
630761.6 4834283.24 119.29 41
630762.36 4834284.59 119.29 36
630762.64 4834283.52 119.37 38
630762.66 4834283.39 119.37 26
630763.16 4834283.54 119.39 45
630762.62 4834283.77 119.38 33
630762.6 4834283.81 119.39 30
630762.7 4834283.26 119.29 11
630762.83 4834284.45 119.3 36
630762.62 4834283.66 119.37 39
630762.61 4834283.78 119.38 32
630762.66 4834283.51 119.36 36
630762.69 4834283.24 118.89 8
630762.6 4834283.82 119.38 30
630762.72 4834283.26 118.83 8
630762.17 4834282.98 119.4 21
630762.53 4834284.13 119.36 36
630762.2 4834285.04 119.21 38
630762.67 4834283.32 119.37 17
630762.65 4834283.56 119.36 38
630763.79 4834284.97 119.2 42
630763.67 4834284.02 119.36 38
630762.99 4834284 119.38 35
630762.63 4834283.69 119.37 36
630762.62 4834283.7 119.36 36
630762.63 4834283.62 119.36 38
630762.61 4834283.81 119.38 30
630762.63 4834283.72 119.37 35
630762.61 4834283.79 119.39 30
630762.67 4834283.45 119.38 30
630763.5 4834284.48 119.3 38
630762.68 4834283.38 119.39 23
630762.68 4834283.25 119.12 10
630761.67 4834284.35 119.33 41
630762.69 4834283.31 119.38 17
630762.71 4834283.27 119.06 10
630762.62 4834283.75 119.37 33
630760.35 4834290.1 119.07 7
630761.49 4834290 119.06 5
630760.51 4834290.88 119.08 27
630760.84 4834289.96 119.08 7
630759.85 4834291.49 119.06 11
630759.34 4834290.79 119.09 8
630760.34 4834291.34 119.09 36
630759.5 4834290.34 119.08 8
630761.47 4834291.39 119.06 23
630760.02 4834291.03 119.08 33
630760.99 4834291.38 119.07 36
630761.31 4834291.85 119.06 8
630760.67 4834290.42 119.08 8
630760.19 4834290.56 119.07 10
630760.18 4834291.79 119.08 8
630760.82 4834291.84 119.04 21
630761.32 4834290.46 119.06 7
630761.16 4834290.92 119.07 17
630759.67 4834289.89 119.07 8
630752.91 4834288.25 127.81 7
630753.99 4834287.57 128.04 38
630754.59 4834289.37 127.83 42
630754.02 4834288.79 128.06 33
630752.58 4834289.14 127.82 5
630752.6 4834287.69 127.81 7
630753.66 4834288.47 127.98 24
630754.19 4834288.33 127.88 36
630753.86 4834289.24 128.03 38
630754.75 4834288.92 127.88 38
630754.35 4834287.87 127.9 36
630753.83 4834288.02 128.04 33
630752.75 4834288.7 127.81 7
630753.33 4834289.37 127.81 7
630753.5 4834288.91 127.81 29
630754.51 4834287.43 128.01 29
630753.07 4834287.8 127.81 7
630754.86 4834289.9 127.88 29
630755.06 4834291.22 127.95 4
630755.23 4834290.77 128.05 2
630754.9 4834291.67 127.94 4
630755.56 4834289.85 127.94 1
630755.39 4834290.31 127.95 2
630743.33 4834292.64 119.11 41
630743.16 4834293.1 119.1 41
630742.56 4834292.62 119.1 41
630742.4 4834293.08 119.09 26
630743.25 4834294.15 119.06 36
630742.24 4834292.04 119.13 33
630743 4834293.55 119.08 41
630742.73 4834292.16 119.12 41
630742.08 4834292.5 119.09 35
630741.91 4834292.96 119.09 21
630741.57 4834293.88 119.07 13
630742.83 4834294.01 119.06 41
630743.41 4834293.7 119.08 38
630743.5 4834292.18 119.05 1
630741.74 4834293.42 119.07 14
630742.06 4834294 119.09 17
630741.36 4834292.33 119.07 10
630742.23 4834293.54 119.07 26
630741.15 4834303.38 119.44 23
630739.49 4834303.2 119.43 0
630730.9 4834290.58 119.1 33
630730.4 4834290.67 119.1 38
630730.73 4834291.05 119.12 29
630730.23 4834291.13 119.11 36
630730.57 4834291.5 119.12 30
630731.07 4834290.12 119.1 36
630730.73 4834289.75 119.09 42
630730.57 4834290.21 119.1 38
630731.23 4834289.66 119.11 38
630734.93 4834294.95 114.27 1
630735.02 4834296.14 114.24 36
630735.69 4834294.28 114.26 35
630736.2 4834296.35 114.21 39
630735.36 4834295.21 114.25 39
630736.16 4834295.05 114.24 20
630736 4834295.51 114.24 36
630735.1 4834294.49 114.29 2
630734.76 4834295.41 114.28 0
630735.83 4834295.97 114.24 38
630736.33 4834294.59 114.22 7
630736.54 4834295.42 114.23 41
630736.37 4834295.89 114.23 41
630736.71 4834294.96 114.22 36
630735.53 4834294.75 114.28 38
630735.19 4834295.68 114.26 39
630740.49 4834279.68 114.16 14
630739.65 4834278.71 114.16 11
630739.14 4834280.1 114.2 21
630739.74 4834279.64 114.23 33
630739.91 4834279.17 114.16 13
630739.31 4834279.63 114.22 23
630740.15 4834280.62 114.22 29
630740.32 4834280.15 114.22 23
630741.24 4834278.96 114.17 14
630740.66 4834279.22 114.15 14
630739.4 4834280.57 114.28 16
630740.9 4834279.89 114.17 10
630739.57 4834280.1 114.21 19
630741.07 4834279.43 114.17 16
630740.07 4834278.71 114.16 11
630740.83 4834278.75 114.15 10
630740.73 4834280.35 114.18 10
630739.48 4834279.17 114.19 10
630742.88 4834291.88 122.13 0
630730.23 4834292.43 119.13 32
630730.4 4834291.96 119.12 35
630730.07 4834292.88 119.12 29
630762.66 4834286.77 119.05 33
630763.17 4834285.39 119.15 36
630761.83 4834287.21 119.06 7
630763.47 4834285.87 119.1 42
630763.63 4834285.42 119.15 43
630763.13 4834286.79 119.07 14
630762.83 4834286.31 119.08 35
630762 4834286.74 119.07 21
630763.3 4834286.33 119.08 38
