630681.1 4834187.67 326.67 0
630681.21 4834187.63 326.95 2
630681.15 4834187.54 326.89 0
630680.99 4834188.22 326.21 0
630681.16 4834187.76 326.71 0
630681.05 4834188.03 326.27 0
630681.21 4834187.38 327.01 0
630681.6 4834189.39 326.42 0
630680.99 4834187.96 326.29 0
630681.78 4834189.25 328.14 0
630681.8 4834188.93 328.25 0
630681.1 4834187.91 326.54 0
630681.04 4834187.81 326.48 0
630681.34 4834187.28 327.11 0
630681.28 4834187.44 326.98 0
630681.75 4834189.06 328 0
630683.04 4834205.75 323.46 52
630683.15 4834205.42 323.29 60
630681.91 4834205.34 323.38 52
630682.12 4834205.25 323.32 76
630682 4834205.57 323.45 0
630695.71 4834205.94 336.91 0
630695.63 4834206.15 336.78 0
630694.67 4834205.38 336.46 0
630696.67 4834207.02 337.26 0
630695.77 4834206.24 337.18 0
630695.87 4834205.97 337.15 0
630696.58 4834207.28 337.3 0
630671.56 4834189.16 304.78 0
630671.36 4834189.26 304.9 0
630670.39 4834189.07 305.12 43
630671.46 4834189.46 304.82 0
630670.29 4834189.34 305.06 219
630670.48 4834188.79 305.17 0
630700.11 4834207.06 323.61 21
630699.03 4834206.64 323.65 43
630699.41 4834206.03 323.62 63
630699.11 4834206.88 323.63 54
630700.2 4834206.83 323.74 30
630699.14 4834206.33 323.5 41
630700.02 4834207.3 323.51 27
630699.01 4834207.14 323.58 52
630699.32 4834205.84 323.69 41
630699.24 4834206.07 323.57 52
630699.21 4834206.6 323.66 38
630678.13 4834185.3 326.59 0
630677.68 4834186.55 326.86 0
630677.76 4834186.6 326.78 0
630677.89 4834185.93 326.18 0
630677.6 4834186.73 326.17 0
630677.63 4834186.94 326.58 0
630678.02 4834185.61 326.37 0
630676.94 4834185.48 326.08 0
630678.07 4834185.46 326.5 0
630677.62 4834186.71 326.76 0
630677.82 4834186.15 326.23 0
630678.29 4834185.11 326.42 0
630678.3 4834185.11 326.98 0
630677.68 4834186.81 326.81 0
630678.24 4834185 326.84 0
630678.14 4834185.54 326.56 0
630677.88 4834186.24 326.29 0
630678.08 4834185.7 326.47 0
630678.2 4834185.38 326.65 0
630677.96 4834186.01 326.2 0
630678.02 4834185.86 326.34 0
630677.95 4834185.78 326.29 0
630678.2 4834185.12 326.61 0
630677.58 4834187.07 326.32 0
630677.27 4834181.05 324.32 32
630678.03 4834182.23 325.89 0
630677.49 4834180.99 324.32 46
630677.36 4834180.98 324.27 32
630677.42 4834180.83 324.28 38
630677 4834181.87 325.85 0
630677.06 4834181.69 325.8 0
630678.58 4834180.69 325.36 0
630676.91 4834182.1 325.58 0
630676.98 4834182.11 325.79 0
630677.48 4834181.04 324.31 43
630677.47 4834181.07 324.31 41
630677.44 4834180.6 324.33 43
630677.47 4834181.06 324.31 46
630677.31 4834181.14 324.28 30
630678.51 4834181.06 325.22 0
630678.25 4834181.79 325.6 0
630678.28 4834181.52 325.65 0
630677.54 4834180.54 324.31 43
630677.47 4834181.1 324.31 41
630677.47 4834181.08 324.3 43
630677.5 4834180.76 324.31 49
630677.38 4834180.75 324.32 38
630676.97 4834181.94 325.59 0
630678.47 4834180.98 325.37 0
630677.48 4834181.01 324.31 43
630678.69 4834180.56 325.39 0
630678.11 4834182.2 325.88 0
630677.5 4834180.91 324.32 49
630677.11 4834181.74 325.64 0
630677.47 4834181.04 324.31 46
630677.52 4834180.54 324.29 43
630677.57 4834180.5 324.33 43
630677.53 4834180.73 324.32 46
630676.77 4834182.67 325.49 0
630678.63 4834180.55 325.37 0
630677.53 4834180.78 324.32 46
630677.49 4834180.85 324.31 49
630677.48 4834180.93 324.31 49
630677.47 4834181.09 324.31 41
630677.52 4834180.83 324.32 46
630677.55 4834180.62 324.33 46
630677.47 4834181 324.31 46
630678.52 4834180.85 325.41 0
630677.47 4834181.07 324.3 46
630677.5 4834180.94 324.31 49
630677.5 4834180.81 324.31 49
630677.52 4834180.65 324.31 49
630677.85 4834182.72 325.91 0
630677.33 4834180.9 324.32 35
630677.49 4834180.97 324.32 49
630677.98 4834182.57 326.04 0
630678.35 4834181.52 325.71 0
630677.48 4834180.97 324.31 49
630678.09 4834182.07 325.88 0
630676.72 4834182.6 325.59 0
630677.04 4834181.95 325.79 0
630677.9 4834182.58 326 0
630678.44 4834181.05 325.13 0
630676.85 4834182.26 325.57 0
630677.54 4834180.68 324.33 46
630677.47 4834181.09 324.3 41
630676.79 4834182.42 325.54 0
630678.6 4834180.8 325.31 0
630677.54 4834180.48 324.31 43
630677.96 4834182.43 326.02 0
630678.18 4834181.98 325.72 0
630677.48 4834181.06 324.31 43
630677.49 4834180.89 324.31 49
630678.64 4834180.68 325.36 0
630678.06 4834182.34 325.83 0
630678.47 4834181.15 325.03 0
630677.51 4834180.71 324.31 49
630678.23 4834181.67 325.64 0
630676.94 4834182.22 325.66 0
630677.56 4834180.56 324.33 43
630677.22 4834181.18 324.24 10
630677.47 4834181.02 324.31 46
630678.29 4834181.68 325.72 0
630676.89 4834182.35 325.52 0
630676.83 4834182.52 325.55 0
630678.55 4834180.95 325.32 0
630677.47 4834180.68 324.29 46
630677.51 4834180.87 324.32 49
630678.16 4834181.85 325.71 0
630677.26 4834181.27 324.22 8
630677.53 4834180.6 324.32 46
630670.23 4834192.79 303.09 0
630670.07 4834192.67 301.81 0
630670.08 4834192.68 302.9 0
630670.22 4834192.78 301.98 0
630674.32 4834180.12 323.84 2
630674.33 4834180.12 324.16 5
630674.92 4834180.4 324.32 63
630674.32 4834180.1 324.21 8
630674.31 4834180.16 324.31 46
630674.32 4834180.19 324.31 49
630674.34 4834180.14 324.04 2
630674.32 4834180.11 324.26 16
630674.31 4834180.18 324.31 52
630674.32 4834180.12 323.96 2
630675.01 4834180.35 324.31 35
630674.31 4834180.2 324.32 52
630674.32 4834180.11 324.09 5
630674.33 4834180.12 324.24 10
630674.32 4834180.16 324.31 41
630674.32 4834180.15 324.31 30
630674.97 4834180.24 324.34 21
630674.33 4834180.13 324.28 21
630674.31 4834180.14 324.31 38
630674.31 4834180.17 324.31 49
630674.31 4834180.2 324.31 49
630674.32 4834180.12 324.3 27
630674.32 4834180.18 324.32 46
630674.31 4834180.19 324.32 52
630674.34 4834180.15 323.92 2
630690.46 4834199.53 333.54 0
630691.77 4834199.88 333.83 0
630690.31 4834199.94 333.28 0
630690.68 4834199.28 333.32 0
630690.57 4834199.22 333.31 0
630691.82 4834199.3 333.25 0
630690.58 4834199.55 333.42 0
630690.37 4834199.77 333.53 0
630690.1 4834200.53 333.67 0
630691.59 4834199.95 333.82 0
630690.49 4834199.8 333.43 0
630690.21 4834200.23 333.46 0
630690.2 4834200.63 333.73 0
630690.29 4834200.37 333.7 0
630691.68 4834199.71 333.82 0
630692.01 4834199.17 333.09 0
630691.51 4834200.64 334.72 0
630691.35 4834200.64 334.5 0
630691.66 4834200.18 334 0
630691.91 4834199.07 333.28 0
630681.27 4834187.21 327.08 0
630681.49 4834186.61 327.04 2
630681.47 4834186.91 327.16 2
630681.66 4834186.14 326.75 0
630681.4 4834187.11 327.17 2
630681.33 4834187.05 327.2 2
630681.64 4834186.41 326.8 0
630681.55 4834186.69 327.07 0
630681.41 4834186.85 327.18 0
630681.58 4834186.37 326.88 0
630681.72 4834186.18 326.69 0
630669.22 4834209.62 323.79 79
630669.55 4834208.72 323.69 74
630669.65 4834208.43 323.7 68
630669.49 4834209.44 323.74 95
630669.6 4834209.13 323.68 71
630669.33 4834209.32 323.78 57
630669.39 4834209.72 323.66 87
630669.44 4834209.02 323.74 71
630665.19 4834205.93 281.89 13
630664.94 4834206.61 281.88 13
630664.82 4834206.94 281.86 13
630664.92 4834205.94 281.87 13
630664.56 4834206.94 281.87 2
630665.07 4834206.26 281.87 13
630664.68 4834206.6 281.86 13
630664.8 4834206.27 281.86 8
630691.05 4834197.46 323.37 0
630691.23 4834196.98 323.43 16
630690.21 4834196.51 323.22 5
630690.12 4834196.76 323.25 5
630692.1 4834198.08 323.45 2
630690 4834197.12 323.62 5
630690.26 4834196.72 323.19 5
630691.6 4834196.31 323.5 8
630691.42 4834196.79 323.44 13
630690.35 4834196.47 323.2 8
630691.31 4834196.75 323.48 16
630689.98 4834197.51 323.24 16
630690.99 4834198 323.2 0
630690.16 4834196.99 323.23 5
630692.19 4834198.26 323.41 2
630691.16 4834197.52 323.31 2
630690.04 4834197.34 323.56 2
630691.4 4834196.5 323.48 10
630690.97 4834197.67 323.25 0
630691.08 4834197.75 323.24 0
630691.49 4834196.26 323.5 13
630691.34 4834197.03 323.4 19
630690.88 4834197.92 323.23 0
630692.01 4834198.33 323.4 2
630690.89 4834198.25 323.19 0
630691.25 4834197.27 323.34 5
630692.19 4834197.84 323.47 2
630691.51 4834196.55 323.47 10
630690.79 4834198.18 323.25 0
630691.14 4834197.21 323.36 5
630689 4834203.99 334.76 0
630688.9 4834204.27 334.81 0
630689.35 4834202.99 333.99 0
630689 4834203.59 334.79 0
630689.22 4834203.38 334.45 0
630687.76 4834203.71 334.02 0
630689.88 4834204.67 334.62 0
630687.89 4834203.33 333.61 0
630689.8 4834204.88 334.49 0
630688.48 4834205.01 334.41 0
630688.82 4834204.07 334.7 0
630689.71 4834205.12 334.41 0
630688.98 4834203.57 332.96 0
630688.73 4834204.73 334.58 0
630688.63 4834204.6 334.77 0
630689.14 4834203.53 333.17 0
630688.56 4834204.8 334.58 0
630688.08 4834203.2 333.81 0
630689.09 4834203.74 334.79 0
630687.87 4834203.81 334.1 0
630687.99 4834203.45 333.77 0
630688.72 4834204.36 334.82 0
630688.56 4834205.22 334.41 0
630688.91 4834203.82 334.72 0
630688.64 4834205 334.57 0
630688.83 4834204.47 334.58 0
630689.1 4834203.32 334.74 0
630687.98 4834203.09 333.65 0
630689.88 4834205.14 334.39 0
630687.76 4834204.1 334.18 0
630672.11 4834184.8 324.31 30
630672.76 4834183 324.31 43
630672.3 4834184.53 324.29 35
630672.41 4834183.98 324.32 32
630672.94 4834182.74 324.28 43
630672.38 4834184.32 324.28 30
630672.88 4834182.93 324.28 46
630672.18 4834184.59 324.32 30
630672.52 4834183.91 324.28 30
630672.74 4834183.31 324.29 43
630672.48 4834183.78 324.31 32
630672.33 4834184.18 324.31 32
630672.81 4834183.12 324.29 46
630672.83 4834182.81 324.31 46
630672.67 4834183.51 324.28 32
630672.69 4834183.2 324.32 43
630672.23 4834184.73 324.28 30
630672.6 4834183.71 324.29 32
630672.62 4834183.39 324.31 35
630672.26 4834184.39 324.32 32
630672.15 4834184.94 324.28 27
630672.45 4834184.11 324.28 32
630672.55 4834183.58 324.31 32
630678.53 4834191.59 324.92 41
630678.66 4834190.85 324.97 65
630678.49 4834191.33 324.97 21
630678.61 4834191.35 324.92 41
630678.4 4834191.57 324.97 52
630678.58 4834191.08 324.96 52
630678 4834178.55 320.42 0
630677.93 4834179.03 320.35 0
630677.95 4834178.88 320.36 5
630677.84 4834179.06 320.35 8
630677.76 4834179.62 320.4 0
630677.89 4834178.75 320.34 0
630677.8 4834179.36 320.35 2
630677.97 4834178.73 320.35 5
630677.9 4834179.18 320.36 0
630677.78 4834179.5 320.35 0
630677.87 4834178.91 320.35 2
630677.82 4834179.21 320.35 5
630688.13 4834195.95 323.31 41
630689.82 4834194.72 323.31 2
630689.47 4834195.32 323.25 2
630689.35 4834195.67 323.62 0
630689.57 4834195.43 323.21 2
630689.29 4834196.18 323.21 27
630689.21 4834196.04 323.25 21
630688.59 4834194.67 323.25 5
630688.56 4834194.38 323.31 2
630689.37 4834195.99 323.41 2
630688.5 4834194.92 323.24 8
630689.64 4834194.86 323.27 2
630688.03 4834195.83 323.36 46
630689.74 4834194.94 323.25 5
630688.41 4834195.18 323.27 16
630689.73 4834194.63 323.3 2
630689.56 4834195.09 323.24 0
630689.3 4834195.81 323.31 5
630689.81 4834194.41 323.35 5
630688.3 4834195.1 323.34 27
630689.91 4834194.48 323.32 5
630688.63 4834194.2 323.51 0
630687.94 4834196.09 323.38 52
630688.48 4834194.61 323.28 5
630688.22 4834195.69 323.3 38
630688.04 4834196.2 323.32 49
630689.47 4834195.7 323.27 0
630688.39 4834194.85 323.31 16
630688.21 4834195.34 323.35 46
630688.12 4834195.59 323.35 32
630688.77 4834194.17 323.24 0
630688.32 4834195.44 323.31 46
630689.66 4834195.18 323.21 2
630689.89 4834194.18 323.36 8
630688.66 4834194.5 323.5 0
630689.03 4834193.45 323.23 2
630689.61 4834191.85 323.32 0
630689.36 4834192.55 323.35 0
630688.95 4834193.68 323.21 0
630689.49 4834191.84 323.36 0
630687.7 4834193.35 323.24 2
630689.44 4834192.31 323.35 0
630688.83 4834193.65 323.26 0
630689.19 4834193.01 323.35 2
630688.15 4834191.74 323.27 0
630689.11 4834193.23 323.29 2
630687.96 4834192.63 323.24 0
630687.73 4834192.9 323.29 0
630688.07 4834191.96 323.25 0
630689.41 4834192.07 323.38 0
630689.53 4834192.08 323.32 0
630687.86 4834192.93 323.41 0
630688.05 4834192.39 323.22 0
630689.24 4834192.53 323.39 2
630688.92 4834193.41 323.24 0
630688.74 4834193.89 323.27 0
630689.16 4834192.76 323.38 2
630689 4834193.19 323.27 2
630687.78 4834193.12 323.26 0
630688.22 4834191.91 323.22 0
630688.86 4834193.92 323.21 0
630687.8 4834192.71 323.42 0
630689.32 4834192.3 323.39 0
630689.27 4834192.78 323.35 2
630689.08 4834192.98 323.33 2
630678.71 4834208.34 324.39 63
630679.71 4834208.33 324.29 68
630680.56 4834209.61 324.3 41
630678.76 4834207.66 324.47 76
630679.39 4834209.19 324.3 57
630680.77 4834209.02 324.29 35
630680.81 4834208.39 324.27 38
630680.02 4834207.95 324.29 38
630679.5 4834209.41 324.3 49
630679.92 4834208.24 324.29 46
630680.39 4834209.55 324.29 38
630679.81 4834208.04 324.29 57
630679.6 4834208.62 324.3 63
630680.88 4834208.73 324.29 38
630679.81 4834208.53 324.29 41
630680.13 4834207.66 324.28 46
630680.71 4834208.68 324.29 38
630679.6 4834209.12 324.3 41
630679.5 4834208.9 324.29 54
630679.92 4834207.75 324.28 46
630678.81 4834208.05 324.4 68
630680.6 4834208.97 324.29 38
630680.02 4834207.48 324.31 76
630679.02 4834207.48 324.42 79
630679.71 4834208.83 324.29 68
630680.91 4834208.11 324.28 38
630680.5 4834209.26 324.29 38
630679.29 4834209.48 324.31 74
630679.39 4834209.71 324.3 43
630678.92 4834207.76 324.41 71
630680.67 4834209.31 324.3 35
630673.09 4834185.68 323.42 74
630672.46 4834187.08 323.63 2
630673.32 4834185.04 323.42 87
630673.01 4834185.89 323.39 57
630672.45 4834187.09 322.91 2
630672.97 4834185.69 323.35 63
630672.54 4834187.18 322.52 2
630673.04 4834185.49 323.41 93
630672.55 4834187.17 323.25 2
630673.11 4834185.29 323.46 90
630673.16 4834185.48 323.45 79
630672.53 4834187.18 321.78 2
630674.12 4834186.2 323.64 65
630673.19 4834185.08 323.45 90
630673.24 4834185.26 323.44 87
630672.44 4834187.08 322.17 2
630688.24 4834206.06 333.59 0
630688.33 4834205.81 333.65 0
630688.39 4834205.23 334.29 0
630689.19 4834207.01 333.4 0
630688.14 4834205.89 333.87 0
630688.24 4834205.63 333.86 0
630689.53 4834205.56 333.25 0
630688.48 4834205.42 334.17 0
630689.42 4834206.35 333.01 0
630688.04 4834206.17 333.95 0
630689.05 4834206.89 333.29 0
630689.26 4834206.29 333.07 0
630689.44 4834205.83 333.27 0
630689.02 4834207.47 333.11 0
630689.7 4834205.59 333.17 0
630689.33 4834206.12 333.39 0
630688.31 4834205.45 334.17 0
630688.4 4834205.63 333.98 0
630689.6 4834205.45 334.66 0
630689.77 4834205.44 334.52 0
630689.11 4834207.21 333.16 0
630689.3 4834206.71 333.31 0
630689.18 4834206.52 332.95 0
630689.5 4834206.16 333.27 0
630688.18 4834206.2 333.12 0
630689.51 4834205.69 334.61 0
630689.59 4834205.9 333.32 0
630678.45 4834177.85 324.31 57
630678.49 4834177.83 324.29 54
630678.38 4834178.03 324.31 49
630678.52 4834177.75 324.3 19
630678.54 4834177.6 324.33 0
630678.36 4834178.2 324.28 57
630678.46 4834177.92 324.29 57
630678.42 4834178.01 324.28 57
630678.55 4834177.67 324.31 0
630678.39 4834178.1 324.28 46
630678.41 4834177.94 324.31 52
630678.51 4834177.69 324.34 16
630678.48 4834177.76 324.32 52
630678.34 4834178.13 324.31 54
630683.66 4834208.39 324.28 35
630685.03 4834208.06 324.31 32
630683.88 4834207.8 324.3 38
630683.63 4834207.92 324.29 32
630683.33 4834208.76 324.27 38
630683.98 4834207.51 324.31 79
630683.77 4834208.09 324.29 32
630684.61 4834209.23 324.3 32
630683.53 4834208.2 324.28 35
630685.23 4834207.5 324.41 93
630684.53 4834208.92 324.31 32
630684.82 4834208.65 324.31 32
630684.84 4834208.07 324.31 35
630683.22 4834209.04 324.28 38
630684.71 4834208.94 324.3 32
630684.63 4834208.63 324.3 35
630685.42 4834209.68 324.3 35
630683.24 4834209.56 324.27 38
630684.94 4834207.79 324.32 76
630684.5 4834209.53 324.3 35
630684.43 4834209.19 324.29 35
630685.04 4834207.53 324.39 82
630683.35 4834209.27 324.28 38
630683.56 4834208.68 324.28 35
630683.74 4834207.64 324.29 46
630683.43 4834208.48 324.27 35
630684.32 4834209.48 324.29 38
630685.13 4834207.77 324.33 79
630684.92 4834208.35 324.31 38
630684.74 4834208.35 324.29 32
630683.45 4834208.97 324.28 38
630666.11 4834202.5 255.05 0
630666.09 4834202.65 255.04 0
630666.37 4834201.24 255.01 2
630666.24 4834202.07 255.07 0
630666.27 4834201.91 255.06 2
630666.13 4834202.36 255.04 2
630666.16 4834202.2 255.04 2
630666.29 4834201.74 255.05 2
630666.34 4834201.41 255.03 5
630666.2 4834201.9 255.03 5
630666.18 4834202.05 255.04 5
630666.25 4834201.57 255.03 0
630666.32 4834201.58 255.04 5
630666.22 4834201.74 255.02 2
630669.64 4834194.2 297.13 74
630669.37 4834194.39 297.18 38
630669.29 4834195.17 297.27 13
630669.25 4834194.72 297.26 16
630669.49 4834194.06 297.11 35
630669.14 4834195.03 297.27 13
630669.52 4834194.52 297.18 71
630669.03 4834195.34 297.27 10
630669.4 4834194.85 297.26 19
630669.18 4834195.48 297.27 13
630671.41 4834192.45 297.08 0
630671.08 4834193.37 297.14 95
630670.24 4834192 297.28 0
630671.2 4834193.54 297.07 79
630670.18 4834192.7 297.29 10
630670.87 4834193.93 297.01 21
630670.03 4834192.65 298.57 0
630669.97 4834193.27 297.14 87
630670.29 4834192.38 297.26 2
630670.18 4834192.76 298.62 0
630671.31 4834193.23 297.1 54
630670.03 4834192.6 297.31 10
630669.86 4834193.58 297.13 85
630671.42 4834192.94 297.18 8
630670.08 4834192.97 297.17 104
630671.54 4834192.61 297.11 0
630671.18 4834193.1 297.28 41
630669.93 4834192.87 297.21 90
630669.71 4834193.45 297.12 38
630669.82 4834193.16 297.17 63
630670.98 4834193.63 297.01 32
630671.1 4834193.83 297 27
630671.29 4834192.79 297.21 8
630670.13 4834192.3 297.32 8
630669.75 4834193.88 297.12 82
630685.63 4834203.03 326.6 0
630685.54 4834203.27 326.48 0
630687.28 4834194.45 330.54 0
630685.88 4834195.1 330.52 0
630685.83 4834194.9 330.28 0
630686.92 4834195.81 330.48 0
630686.22 4834194.17 330.5 0
630687.21 4834194.66 330.48 0
630685.75 4834195.13 330.26 0
630687.27 4834194.77 328.61 0
630685.57 4834195.95 330.21 0
630685.84 4834195.19 330.06 0
630687.12 4834194.91 330.55 0
630687.15 4834194.71 328.42 0
630687.35 4834194.63 330.47 0
630685.52 4834195.75 329.97 0
630686.82 4834195.71 330.16 0
630666.19 4834206.85 281.87 13
630666.1 4834206.37 281.87 16
630666.07 4834207.17 281.8 16
630665.76 4834207.3 281.66 13
630667.07 4834207.2 281.85 19
630665.86 4834207.02 281.86 13
630667.22 4834207.43 281.86 19
630665.99 4834206.69 281.86 13
630666.31 4834206.51 281.88 13
630667.34 4834207.09 281.87 16
630667.31 4834206.54 281.89 0
630667.19 4834206.86 281.86 13
630673.73 4834189.89 304.9 0
630673.52 4834190.48 305 5
630672.52 4834189.75 304.83 0
630672.38 4834190.57 304.75 90
630672.46 4834190.35 304.99 74
630672.12 4834190.83 304.71 24
630673.62 4834190.19 304.98 2
630673.12 4834191.56 304.83 76
630672.18 4834191.14 304.7 21
630672.32 4834190.3 304.8 13
630673.32 4834191.45 304.83 79
630673.42 4834191.16 304.85 90
630672.42 4834190.02 304.82 8
630672.02 4834191.11 304.72 21
630672.58 4834190.02 304.81 5
630672.28 4834190.85 304.68 32
630673.62 4834190.61 304.98 5
630673.72 4834190.32 304.97 2
630673.43 4834190.71 304.82 71
630672.07 4834191.43 304.69 19
630673.33 4834191 304.87 85
630673.53 4834190.86 304.81 79
630672.22 4834190.56 304.74 93
630673.23 4834191.28 304.84 71
630673.66 4834197.43 323.61 82
630674.19 4834196.4 323.54 82
630672.76 4834196.98 323.51 71
630673.95 4834196.63 323.57 87
630672.69 4834196.76 323.57 65
630672.1 4834198.36 323.53 68
630673.56 4834197.71 323.67 76
630673.36 4834198.25 323.66 95
630673.99 4834196.95 323.54 85
630673.68 4834197.8 323.61 82
630672.5 4834197.28 323.52 65
630672.3 4834197.82 323.53 54
630673.45 4834198 323.75 87
630672.36 4834198.09 323.49 82
630673.57 4834198.11 323.73 76
630673.48 4834198.37 323.63 101
630673.85 4834196.9 323.58 87
630672.86 4834196.71 323.54 71
630673.79 4834197.51 323.57 85
630672.96 4834196.44 323.56 79
630672.78 4834196.5 323.59 71
630674.09 4834196.67 323.53 85
630672.26 4834198.37 323.5 85
630674.04 4834196.37 323.56 87
630673.75 4834197.16 323.58 82
630672.59 4834197.02 323.54 71
630672.66 4834197.26 323.5 65
630673.89 4834197.23 323.55 85
630672.46 4834197.81 323.49 65
630672.88 4834196.24 323.58 68
630672.4 4834197.54 323.52 71
630672.56 4834197.53 323.49 63
630672.2 4834198.09 323.56 68
630674.44 4834195.29 323.44 79
630675.57 4834196.02 323.25 71
630675.92 4834194.64 323.38 65
630674.38 4834195.85 323.53 76
630675.95 4834194.97 323.31 76
630675.55 4834195.66 323.31 68
630676.02 4834194.37 323.31 63
630676.05 4834194.7 323.29 65
630676.24 4834194.17 323.28 71
630674.87 4834194.5 323.4 71
630675.86 4834195.23 323.3 71
630676.15 4834194.42 323.26 79
630674.53 4834195.03 323.46 60
630674.49 4834195.56 323.44 76
630674.96 4834194.24 323.41 71
630674.29 4834196.12 323.53 82
630675.76 4834195.5 323.32 38
630674.81 4834194.26 323.44 71
630676.11 4834194.12 323.33 74
630675.67 4834195.76 323.27 65
630674.91 4834194 323.45 71
630675.73 4834195.16 323.38 68
630675.05 4834193.98 323.42 68
630675.45 4834195.92 323.32 68
630675.82 4834194.9 323.38 68
630674.58 4834195.29 323.41 74
630674.72 4834194.51 323.45 63
630674.62 4834194.78 323.48 68
630674.33 4834195.58 323.54 76
630674.23 4834195.85 323.57 76
630675.63 4834195.43 323.42 30
630675.35 4834196.2 323.35 63
630674.77 4834194.76 323.42 65
630674.68 4834195.03 323.43 76
630681.88 4834195.95 323.44 65
630681.9 4834195.47 323.41 57
630681.71 4834195.99 323.46 76
630682.07 4834195.4 323.33 71
630682 4834195.19 323.31 74
630683.14 4834195.99 323.36 32
630681.8 4834195.73 323.41 65
630682.93 4834196.19 323.37 65
630683.11 4834195.69 323.39 60
630682.17 4834195.12 323.27 5
630681.78 4834196.21 323.44 68
630681.97 4834195.68 323.42 41
630683.01 4834195.96 323.42 30
630688.26 4834195.76 327.66 0
630688.22 4834195.51 327.8 0
630688.32 4834195.61 327.95 0
630688.2 4834195.92 327.35 0
630688.35 4834195.19 328.25 0
630687.98 4834196.17 327.67 0
630688.39 4834195.43 328.14 0
630688.29 4834195.34 327.99 0
630688.1 4834196.21 327.5 0
630688.04 4834196 327.88 0
630688.14 4834195.74 327.79 0
630690.29 4834206.72 323.2 27
630690.08 4834207.29 323.2 46
630691.66 4834206.35 323.2 2
630690.37 4834207.01 323.21 35
630691.26 4834207.45 323.16 16
630690.26 4834207.3 323.19 41
630691.93 4834206.08 323.2 2
630690.78 4834205.87 323.24 0
630690.39 4834206.44 323.22 13
630690.99 4834205.29 323.22 0
630691.96 4834205.53 323.21 0
630690.79 4834205.34 323.23 0
630691.52 4834207.22 323.17 10
630691.46 4834206.89 323.16 13
630691.72 4834206.64 323.17 10
630692.06 4834205.25 323.2 0
630691.82 4834206.37 323.21 2
630691.36 4834207.17 323.15 13
630690.68 4834206.16 323.24 2
630690.47 4834206.73 323.21 21
630691.62 4834206.93 323.16 16
630691.56 4834206.62 323.18 8
630691.76 4834206.08 323.22 0
630692.03 4834205.8 323.2 0
630691.86 4834205.8 323.21 0
630690.88 4834205.58 323.23 0
630690.18 4834207.01 323.2 38
630689.71 4834204.62 323.23 2
630688.73 4834204.25 323.17 0
630688.47 4834204.51 323.2 2
630689.91 4834204.07 323.24 0
630688.83 4834203.97 323.18 0
630688.37 4834204.78 323.2 2
630689.86 4834204.72 323.23 2
630688.57 4834204.23 323.19 0
630688.67 4834203.96 323.2 0
630689.76 4834205.01 323.22 2
630689.61 4834204.89 323.22 2
630689.51 4834205.16 323.22 5
630688.63 4834204.53 323.17 5
630688.42 4834205.1 323.19 5
630688.53 4834204.81 323.18 5
630689.81 4834204.34 323.23 0
630688.27 4834205.06 323.21 2
630688.93 4834203.69 323.17 0
630673.84 4834207.93 323.21 79
630673.16 4834209.29 323.15 19
630672.51 4834208.26 323.27 82
630673.52 4834208.83 323.24 82
630672.4 4834208.55 323.2 52
630673.05 4834209.59 323.2 27
630673.2 4834209.72 323.21 35
630673.42 4834209.12 323.2 35
630673.68 4834207.86 323.23 79
630673.36 4834208.74 323.26 76
630672.14 4834208.67 323.56 8
630673.47 4834208.44 323.25 74
630672.71 4834207.69 323.33 63
630673.31 4834209.41 323.19 27
630673.63 4834208.53 323.25 79
630672.06 4834208.87 323.22 46
630673.79 4834207.57 323.23 82
630672.61 4834207.98 323.34 68
630673.58 4834208.15 323.24 76
630672.28 4834208.29 323.23 68
630673.95 4834207.64 323.22 82
630672.38 4834208.01 323.24 65
630671.95 4834209.18 323.29 57
630672.49 4834207.71 323.2 49
630672.18 4834209.17 323.3 65
630673.26 4834209.02 323.21 38
630672.07 4834209.47 323.32 65
630673.74 4834208.23 323.23 82
630672.3 4834208.84 323.19 57
630674.15 4834209.68 323.21 60
630683.82 4834200.1 323.25 76
630684.01 4834199.58 323.27 79
630685.35 4834199.42 323.27 76
630684.55 4834198.5 323.32 74
630683.38 4834198.59 323.31 76
630684.35 4834199.04 323.31 87
630684.16 4834199.57 323.28 79
630685.19 4834200.33 323.23 82
630685.09 4834200.6 323.21 79
630683.2 4834198.71 323.32 71
630685.29 4834200.06 323.24 79
630684.26 4834199.3 323.29 79
630684.39 4834198.53 323.33 74
630685.15 4834199.95 323.26 76
630683.72 4834200.37 323.25 79
630684.29 4834198.8 323.33 87
630685.38 4834199.79 323.26 76
630685.44 4834199.16 323.29 68
630683.77 4834200.66 323.22 76
630684.2 4834199.06 323.32 82
630683.62 4834200.64 323.24 79
630684.11 4834199.31 323.28 76
630684.96 4834200.48 323.24 76
630683.29 4834198.86 323.3 71
630685.06 4834200.21 323.24 76
630683.97 4834200.11 323.24 76
630684.45 4834198.77 323.32 82
630683.87 4834200.39 323.23 76
630685.25 4834199.68 323.27 76
630684.06 4834199.84 323.26 79
630683.91 4834199.84 323.26 79
630686.59 4834203.69 333.82 0
630686.31 4834204.46 333.79 0
630687.57 4834204.23 334.06 0
630686.23 4834204.66 333.6 0
630686.62 4834204.04 334.07 0
630687.5 4834204.41 333.8 0
630687.41 4834205.07 333.85 0
630687.51 4834204.8 333.85 0
630686.17 4834204.82 333.23 0
630686.53 4834204.31 334.06 0
630686.7 4834203.39 333.66 0
630687.3 4834204.95 333.87 0
630687.65 4834204.01 334.18 0
630686.46 4834204.49 333.77 0
630686.37 4834204.72 333.6 0
630687.4 4834204.68 333.82 0
630686.88 4834203.29 333.29 0
630686.74 4834203.7 333.79 0
630686.38 4834204.28 334.07 0
630686.47 4834204.02 334.08 0
630687.65 4834204.41 334.35 0
630686.29 4834204.95 333.48 0
630687.59 4834204.57 333.96 0
630700.46 4834209.57 324.29 41
630699.67 4834208.77 324.26 43
630699.97 4834207.93 324.27 41
630699.56 4834209.06 324.26 30
630700.08 4834207.64 324.26 41
630699.77 4834208.49 324.27 46
630699.87 4834208.21 324.26 46
630700.56 4834209.3 324.31 0
630669.84 4834199.57 281.71 74
630669.73 4834199.88 281.62 32
630670.06 4834198.97 281.92 57
630670.06 4834199.54 281.77 76
630670.41 4834198.57 281.87 5
630669.82 4834200.21 281.73 57
630669.94 4834199.87 281.72 71
630670.18 4834199.2 281.75 82
630670.19 4834198.63 281.84 8
630669.96 4834199.26 281.75 87
630670.29 4834198.9 281.87 19
630670.73 4834188.28 285.82 0
630670.9 4834187.82 285.85 0
630670.85 4834187.47 285.77 2
630670.82 4834187.67 285.8 8
630670.79 4834187.88 285.81 5
630670.96 4834187.41 285.85 5
630670.76 4834188.08 285.81 2
630670.93 4834187.61 285.87 0
630682.84 4834206.34 324.59 30
630681.41 4834207.25 324.28 60
630681.71 4834206.42 324.44 87
630681.71 4834205.94 324.58 27
630681.91 4834205.87 324.57 21
630681.32 4834206.99 324.33 82
630681.51 4834206.97 324.33 82
630682.65 4834206.85 324.4 82
630683.03 4834206.38 324.57 30
630682.45 4834207.39 324.32 76
630681.61 4834206.2 324.52 43
630681.81 4834206.16 324.57 21
630682.55 4834207.11 324.35 82
630682.93 4834206.65 324.51 32
630681.61 4834206.69 324.38 82
630681.22 4834207.26 324.29 68
630682.75 4834206.59 324.49 52
630682.73 4834207.2 324.35 79
630682.83 4834206.92 324.4 85
630681.42 4834206.72 324.36 79
630681.52 4834206.46 324.43 87
630668.97 4834207 324.28 52
630669.49 4834205.57 324.27 35
630669.28 4834206.15 324.27 49
630669.28 4834206.69 324.25 49
630669.07 4834206.72 324.27 52
630669.6 4834205.79 324.24 43
630669.17 4834206.99 324.26 52
630669.39 4834206.39 324.26 49
630669.06 4834207.29 324.26 43
630669.39 4834205.86 324.27 46
630669.49 4834206.09 324.25 46
630668.87 4834207.29 324.27 52
630669.18 4834206.43 324.27 52
630669.6 4834205.28 324.27 32
630682.42 4834184.14 323.82 0
630681.47 4834183.43 325.74 0
630681.42 4834183.36 325.93 0
630681.32 4834183.87 326.06 0
630681.39 4834183.43 325.65 0
630681.49 4834183.15 325.8 0
630681.42 4834183.56 325.63 0
630680.95 4834184.88 325.93 0
630681.53 4834183.28 325.76 0
630687.29 4834202.13 332.92 0
630667.62 4834201.85 273.94 57
630669.38 4834201.09 273.91 0
630667.5 4834202.19 273.93 54
630668.83 4834202.02 273.96 87
630669.25 4834201.47 274.03 5
630667.84 4834201.92 273.9 60
630668.75 4834202.85 273.91 52
630667.58 4834202.66 274.06 60
630669.2 4834201 273.91 0
630669.51 4834200.75 273.93 0
630668.21 4834200.89 273.96 0
630668.94 4834201.73 274.18 27
630668.71 4834202.34 273.89 52
630668.09 4834201.24 273.97 5
630667.71 4834202.28 273.93 49
630669.11 4834201.86 274.19 35
630669 4834202.16 273.96 85
630667.97 4834201.58 273.91 32
630668.88 4834202.5 273.91 54
630667.87 4834201.18 273.94 5
630669.07 4834201.35 273.99 5
630668.59 4834202.67 273.9 52
630667.98 4834200.86 274 0
630667.74 4834201.51 273.92 27
630689.82 4834191.59 331.28 0
630687.71 4834190.05 330.8 0
630687.8 4834189.79 330.58 0
630688.59 4834190.87 330.58 0
630689.78 4834191.42 331.32 0
630689.7 4834191.62 331.34 0
630689.9 4834191.09 331.51 0
630687.79 4834189.55 330.59 0
630688.37 4834191.47 330.58 0
630689.84 4834191.26 331.43 0
630689.89 4834191.4 331.31 0
630688.45 4834191.27 330.57 0
630688.52 4834191.07 330.57 0
630687.71 4834189.79 330.75 0
630688.43 4834191.63 330.63 0
630671.25 4834190.04 304.82 76
630670.09 4834189.87 304.89 159
630669.88 4834190.45 304.88 5
630670.84 4834191.18 304.7 52
630671.06 4834190.08 304.82 101
630670.86 4834190.63 304.77 82
630670.55 4834191.49 304.78 68
630671.82 4834191.67 304.7 16
630670.19 4834189.6 304.96 54
630671.26 4834189.55 304.92 2
630670.96 4834190.36 304.8 79
630671.92 4834191.39 304.7 16
630671.16 4834189.82 304.91 2
630671.15 4834190.31 304.75 93
630670.94 4834190.89 304.72 74
630669.77 4834190.76 304.94 2
630670.73 4834191.48 304.73 74
630670.76 4834190.91 304.77 76
630669.99 4834190.16 304.88 8
630671.05 4834190.6 304.72 79
630671.34 4834189.78 304.92 5
630670.66 4834191.19 304.75 68
630668.66 4834207.86 324.28 52
630668.41 4834209.09 324.28 54
630668.74 4834208.19 324.27 49
630668.24 4834209.02 324.28 52
630668.02 4834209.6 324.28 43
630668.34 4834208.73 324.28 43
630668.55 4834208.15 324.28 52
630668.85 4834207.89 324.26 49
630668.13 4834209.31 324.28 43
630668.76 4834207.57 324.28 35
630668.2 4834209.68 324.27 46
630668.45 4834208.44 324.28 46
630668.95 4834207.59 324.25 38
630668.52 4834208.79 324.27 49
630668.63 4834208.49 324.27 52
630668.31 4834209.39 324.27 52
630680.82 4834185.16 323.29 0
630680.7 4834185.2 323.4 0
630678.82 4834186.98 323.25 16
630679.08 4834185.98 323.26 27
630679.42 4834185.32 323.22 5
630678.98 4834186.55 323.21 10
630679.49 4834185.12 323.21 13
630679.05 4834186.34 323.2 13
630680.74 4834185.37 323.35 0
630679.15 4834185.78 323.27 16
630680.03 4834187.04 323.44 0
630678.93 4834186.39 323.24 8
630678.85 4834186.59 323.23 13
630679.34 4834185.54 323.29 2
630679.37 4834185.18 323.25 8
630678.9 4834186.75 323.2 13
630679.44 4834184.98 323.25 16
630679.22 4834185.58 323.27 8
630679.13 4834186.14 323.23 27
630678.77 4834186.81 323.26 19
630679.27 4834185.75 323.32 2
630678.7 4834187.03 323.27 19
630679.01 4834186.18 323.24 13
630679.3 4834185.38 323.25 5
630678.75 4834187.19 323.22 21
630679.2 4834185.93 323.23 13
630680.15 4834187.02 323.42 0
630686.01 4834197.61 323.34 68
630687.66 4834196.84 323.37 71
630686.43 4834196.88 323.32 76
630687.48 4834197.35 323.35 85
630686.19 4834197.1 323.35 76
630686.28 4834196.85 323.36 74
630687.4 4834197.99 323.29 71
630686.34 4834197.15 323.32 79
630686.24 4834197.4 323.32 79
630687.19 4834198.13 323.33 74
630687.38 4834197.61 323.33 79
630687.1 4834198.39 323.31 68
630685.82 4834198.12 323.32 60
630686.47 4834196.34 323.33 71
630685.96 4834198.19 323.31 68
630686.15 4834197.67 323.32 71
630687.29 4834197.87 323.33 71
630687.3 4834198.25 323.29 71
630687.49 4834197.74 323.31 76
630685.92 4834197.86 323.32 71
630687.67 4834197.23 323.33 76
630686.62 4834196.36 323.29 68
630687.57 4834197.09 323.36 76
630686.38 4834196.6 323.35 65
630686.1 4834197.36 323.35 76
630685.87 4834198.45 323.29 63
630686.06 4834197.93 323.3 74
630685.73 4834198.37 323.3 57
630687.58 4834197.49 323.32 90
630686.52 4834196.63 323.33 71
630676.31 4834187.11 323.28 21
630675.53 4834186.05 323.37 65
630676.27 4834186.91 323.28 54
630674.37 4834185.79 323.44 79
630674.52 4834185.07 323.41 93
630675.63 4834185.49 323.39 68
630674.29 4834186.03 323.5 71
630675.47 4834185.93 323.44 65
630674.45 4834185.28 323.42 87
630674.46 4834185.56 323.4 93
630675.69 4834185.61 323.34 68
630675.76 4834185.4 323.34 68
630675.71 4834185.28 323.36 71
630675.29 4834186.72 323.41 82
630674.37 4834185.5 323.44 85
630676.36 4834186.69 323.25 32
630675.61 4834185.83 323.36 65
630675.37 4834186.51 323.44 65
630675.55 4834185.71 323.41 65
630674.2 4834186.27 323.59 54
630675.45 4834186.28 323.41 65
630675.78 4834185.08 323.37 65
630675.31 4834186.39 323.52 54
630674.2 4834185.95 323.55 71
630676.39 4834186.89 323.29 13
630675.39 4834186.15 323.47 63
630675.23 4834186.59 323.5 68
630675.84 4834185.18 323.32 68
630676.44 4834186.46 323.25 46
630675.91 4834184.98 323.32 60
630674.29 4834185.72 323.49 79
630676.19 4834187.14 323.29 68
630674.53 4834185.34 323.38 90
630674.61 4834185.13 323.36 90
630691 4834211.5 323.16 52
630691.81 4834209.78 323.17 38
630690.44 4834210.21 323.41 52
630691.21 4834210.93 323.16 43
630690.32 4834210.04 323.37 10
630690.1 4834210.65 323.5 5
630690 4834211.44 323.49 68
630691.39 4834210.96 323.17 35
630691.31 4834210.65 323.16 52
630690.21 4834210.34 323.42 5
630692.14 4834211.7 323.16 27
630690.43 4834209.73 323.28 16
630690.33 4834210.53 323.46 57
630690.22 4834210.84 323.49 60
630691.71 4834210.07 323.16 35
630691.49 4834210.66 323.17 32
630691.42 4834210.36 323.15 41
630691.62 4834209.81 323.2 68
630691.1 4834211.22 323.16 54
630689.99 4834210.94 323.53 2
630691.6 4834210.37 323.17 35
630691.07 4834211.85 323.16 32
630690.11 4834211.14 323.5 63
630690.89 4834211.79 323.17 68
630691.52 4834210.08 323.16 57
630691.17 4834211.55 323.17 38
630691.28 4834211.26 323.17 32
630690.55 4834209.91 323.37 52
630679.99 4834187.45 323.45 0
630679.84 4834187.88 323.4 2
630679.62 4834188.49 323.2 16
630680.74 4834188.79 323.19 8
630680.65 4834189.02 323.2 16
630679.78 4834188.05 323.24 8
630679.45 4834188.95 323.21 35
630680.57 4834189.25 323.21 19
630680.82 4834188.29 323.32 2
630680.58 4834188.93 323.23 16
630679.87 4834187.49 323.5 0
630679.17 4834189.39 323.23 24
630680.66 4834188.71 323.23 13
630679.25 4834189.17 323.24 30
630680.42 4834189.38 323.23 19
630680.81 4834188.58 323.24 5
630679.37 4834189.18 323.2 43
630679.33 4834188.94 323.24 43
630679.58 4834188.27 323.22 19
630679.72 4834187.88 323.38 5
630679.66 4834188.05 323.23 16
630680.5 4834189.15 323.24 19
630679.7 4834188.26 323.19 13
630679.29 4834189.41 323.2 24
630679.79 4834187.69 323.47 2
630680.74 4834188.5 323.27 5
630679.95 4834187.25 323.43 0
630679.49 4834188.5 323.23 32
630680.88 4834188.11 323.44 0
630679.54 4834188.72 323.2 24
630680.94 4834187.96 323.62 0
630680.88 4834188.39 323.32 0
630679.41 4834188.72 323.24 32
630679.91 4834187.68 323.46 0
630690.19 4834190.42 328.24 0
630690.89 4834191.46 323.58 46
630692.04 4834191.53 323.79 87
630690.82 4834191.65 323.52 30
630691.05 4834191.34 323.66 90
630691.3 4834190.62 323.45 76
630690.97 4834191.54 323.61 52
630691.13 4834191.11 323.64 63
630691.04 4834191.07 323.7 90
630691.21 4834190.57 323.46 90
630692.08 4834191.68 323.76 90
630691.26 4834190.46 323.77 21
630690.96 4834191.26 323.65 85
630690.09 4834190.51 323.33 0
630692.16 4834191.47 323.81 87
630691.23 4834190.83 323.42 79
630691.14 4834190.78 323.46 71
630668.1 4834196.24 278.15 2
630668.08 4834196.42 278.14 0
630668.08 4834196.47 278.14 0
630668.11 4834196.3 278.15 0
630668.06 4834196.56 278.15 0
630668.17 4834196.24 276.8 0
630668.09 4834196.34 278.14 0
630668.07 4834196.5 278.16 0
630668.08 4834196.39 278.13 0
630668.11 4834196.37 276.8 0
630668.06 4834196.53 278.14 0
630668.07 4834196.55 278.18 0
630668.07 4834196.52 278.15 0
630668.07 4834196.48 278.15 0
630668.12 4834196.25 278.16 0
630668.09 4834196.43 278.15 0
630668.1 4834196.4 278.14 0
630668.12 4834196.31 276.78 0
630668.08 4834196.49 278.16 0
630668.07 4834196.46 278.14 0
630668.11 4834196.35 278.16 0
630668.09 4834196.29 278.15 2
630686.03 4834191.62 332.05 0
630687.58 4834190.4 330.7 0
630686.27 4834190.92 331.74 0
630687.41 4834190.95 332.39 0
630686.13 4834191.32 331.77 0
630687.25 4834191.38 332.52 0
630687.33 4834190.89 332.38 0
630685.92 4834191.64 331.97 0
630687.5 4834190.37 330.75 0
630687.34 4834191.13 332.38 0
630685.92 4834191.61 331.24 0
630687.63 4834190.01 330.86 0
630687.11 4834191.51 332.47 0
630686.19 4834191.16 331.89 0
630686.34 4834190.73 331.74 0
630687.42 4834190.56 330.75 0
630686.09 4834191.17 331.76 0
630687.51 4834190.58 330.66 0
630687.17 4834191.34 332.57 0
630686.01 4834191.39 331.82 0
630687.56 4834190.21 330.87 0
630686.16 4834190.97 331.79 0
630687.18 4834191.57 332.51 0
630687.62 4834190.28 330.91 0
630687.25 4834191.13 332.52 0
630686.24 4834190.77 331.78 0
630687.39 4834190.73 332.48 0
630680.68 4834198.81 323.32 76
630680.63 4834199.4 323.29 76
630679.03 4834199.65 323.3 76
630679.3 4834199.37 323.31 76
630678.73 4834200.46 323.28 79
630680.19 4834200.15 323.27 79
630679.99 4834200.69 323.25 76
630679.11 4834199.91 323.28 76
630680.58 4834199.07 323.31 71
630679.41 4834198.6 323.32 71
630680.53 4834199.68 323.28 71
630678.91 4834200.47 323.29 71
630680.09 4834200.42 323.25 74
630679.32 4834198.86 323.31 76
630680.43 4834199.95 323.27 71
630679.12 4834199.39 323.3 65
630679.01 4834200.19 323.28 79
630679.6 4834198.55 323.32 76
630679.5 4834198.82 323.31 71
630680.39 4834199.61 323.28 76
630680.29 4834199.88 323.29 74
630679.22 4834199.12 323.32 79
630679.2 4834199.64 323.29 74
630680.48 4834199.34 323.3 76
630680.83 4834198.86 323.31 76
630678.93 4834199.92 323.29 71
630679.4 4834199.1 323.32 74
630680.33 4834200.23 323.27 76
630678.83 4834200.19 323.29 71
630680.77 4834198.54 323.33 68
630680.23 4834200.51 323.26 76
630680.93 4834198.58 323.32 71
630680.73 4834199.13 323.3 76
630667.96 4834198.32 284.23 0
630667.74 4834198.3 284.32 0
630672.32 4834187.05 314.29 0
630673.08 4834184.98 314.63 2
630672.42 4834187.13 313.52 13
630673.65 4834187.02 313.46 0
630672.3 4834187.07 313.5 46
630673.06 4834185.4 314.49 0
630673.74 4834187.15 313.43 0
630672.43 4834187.14 314.42 0
630672.52 4834186.88 313.56 0
630673.14 4834185.18 314.58 117
630673.01 4834185.19 314.55 0
630691.38 4834204.79 337.59 0
630691.82 4834203.61 338.73 0
630691.51 4834204.48 338.26 0
630691.68 4834203.95 337.33 0
630691.65 4834203.62 337.33 0
630691.31 4834204.58 338.01 0
630691.65 4834203.66 338.32 0
630691.39 4834204.38 338.21 0
630691.45 4834204.21 338.47 0
630691.75 4834203.81 338.54 0
630691.54 4834203.99 338.57 0
630691.67 4834204.04 338.49 0
630691.31 4834204.99 337.41 0
630691.58 4834204.28 338.45 0
630691.18 4834204.92 337.45 0
630691.25 4834204.73 337.68 0
630691.44 4834204.65 337.97 0
630673.6 4834187.45 320.34 60
630673.7 4834187.54 320.32 21
630684.42 4834179.39 324.31 46
630684.99 4834180.13 323.83 13
630685.1 4834179.74 324.29 54
630684.12 4834179.31 324.3 54
630684.45 4834179.23 323.93 2
630684.03 4834179.55 324.28 57
630683.98 4834179.78 323.82 13
630684.06 4834179.47 324.29 54
630684.21 4834179.15 324.29 27
630685.25 4834179.34 324.33 0
630684 4834179.64 324.28 54
630684.13 4834179.38 324.28 54
630684.15 4834179.23 324.29 57
630684.1 4834179.47 324.28 57
630684.37 4834179.16 324.26 38
630683.98 4834179.8 324.17 21
630684 4834179.74 324.26 57
630684.31 4834179.6 324.25 43
630685.22 4834179.41 324.31 19
630685.24 4834179.46 324.3 8
630684.98 4834180.05 324.13 16
630685.05 4834179.97 324.26 52
630685.18 4834179.62 324.28 57
630685.13 4834179.65 324.29 52
630684.21 4834179.08 324.32 5
630684.37 4834179.68 324.3 49
630685.02 4834180.07 324.27 54
630685.09 4834179.88 324.27 54
630684.07 4834179.55 324.27 63
630683.97 4834179.72 324.26 41
630684.39 4834179.08 324.1 5
630684.33 4834179.46 324.26 49
630683.96 4834179.73 324.03 13
630684.18 4834179.15 324.31 46
630685.12 4834179.79 324.27 54
630685.07 4834179.83 324.29 54
630684.35 4834179.31 324.27 46
630684.09 4834179.39 324.29 54
630684.44 4834179.25 324.29 27
630685.19 4834179.49 324.31 54
630684.35 4834179.82 324.29 46
630684.18 4834179.22 324.29 54
630684.39 4834179.54 324.29 49
630685.16 4834179.57 324.3 54
630684.99 4834180.15 324.2 27
630685.03 4834179.92 324.3 57
630684.03 4834179.64 324.27 54
630685 4834180.01 324.28 52
630684.24 4834179.07 324.31 0
630684.16 4834179.3 324.28 57
630684.29 4834179.74 324.25 43
630685.21 4834179.54 324.29 49
630685.15 4834179.7 324.28 54
630694.66 4834198.2 324.29 43
630694.84 4834197.71 324.3 41
630694.94 4834197.79 324.26 63
630694.76 4834198.29 324.26 60
630695.1 4834196.98 324.3 57
630694.56 4834198.46 324.29 24
630695.03 4834197.54 324.26 60
630695.19 4834196.75 324.31 54
630695.21 4834197.04 324.26 57
630694.75 4834197.95 324.29 49
630695.47 4834196.31 324.27 46
630695.12 4834197.29 324.25 60
630695.01 4834197.23 324.3 60
630695.38 4834196.55 324.26 54
630695.36 4834196.28 324.31 41
630695.27 4834196.51 324.3 57
630694.85 4834198.04 324.26 63
630694.93 4834197.46 324.3 60
630695.29 4834196.8 324.26 57
630695.28 4834206.5 323.19 5
630696.54 4834206.75 323.42 19
630694.58 4834205.49 323.19 2
630695.43 4834206.6 323.22 13
630695.38 4834206.23 323.21 13
630694.97 4834207.34 323.28 2
630695.57 4834205.7 323.28 13
630695.06 4834207.12 323.5 0
630695.83 4834205.49 323.32 21
630695.18 4834207.32 323.76 0
630695.53 4834206.34 323.32 10
630695.67 4834205.43 323.31 16
630696.56 4834207.2 323.41 19
630688.02 4834188.92 330.37 0
630689.12 4834189.42 330.24 0
630688.03 4834189.13 330.31 0
630688.06 4834188.99 329.28 0
630689.2 4834189.18 330.07 0
630689.28 4834189.24 329.89 0
630689.34 4834189.07 329.91 0
630687.88 4834189.3 330.41 0
630689.28 4834188.96 329.96 0
630688.09 4834188.96 330.35 0
630687.96 4834189.31 330.26 0
630690.6 4834195.78 323.42 19
630691.77 4834195.83 323.56 16
630691.75 4834195.53 323.56 10
630690.81 4834194.88 323.48 2
630691.93 4834195.39 323.72 2
630690.46 4834195.82 323.38 21
630691.21 4834194.09 323.44 2
630692.04 4834194.76 323.39 16
630690.63 4834195.36 323.46 8
630691.86 4834195.58 323.54 2
630690.95 4834194.82 323.49 2
630690.99 4834194.38 323.44 2
630690.72 4834195.12 323.47 8
630689.99 4834194.25 323.34 5
630690.38 4834196.05 323.31 13
630692.14 4834194.8 323.38 30
630692.06 4834195.02 323.3 19
630691.14 4834194.29 323.33 5
630691.85 4834195.28 323.52 2
630691.92 4834195.08 323.65 2
630690.69 4834195.54 323.44 10
630690.52 4834196.01 323.35 30
630690.55 4834195.6 323.44 16
630690.78 4834195.3 323.46 5
630690.9 4834194.64 323.49 2
630691.04 4834194.57 323.44 2
630691.09 4834194.12 323.38 2
630690.86 4834195.06 323.46 2
630690.08 4834194.01 323.36 10
630692.12 4834194.52 323.42 16
630675.23 4834200.71 323.43 76
630674.67 4834198.53 323.38 68
630674.27 4834199.64 323.36 79
630674.37 4834199.37 323.41 71
630674.27 4834199.17 323.52 76
630676.35 4834200.55 323.36 90
630675.17 4834200.36 323.22 57
630675.53 4834199.86 323.45 79
630674.47 4834198.62 323.49 68
630675.64 4834199.57 323.45 79
630675.94 4834198.73 323.44 85
630675.84 4834198.53 323.43 71
630675.74 4834199.29 323.45 82
630675.74 4834198.8 323.44 74
630675.44 4834199.61 323.43 71
630675.43 4834200.14 323.44 65
630675.05 4834200.67 323.35 63
630675.26 4834200.1 323.25 57
630675.33 4834200.41 323.39 57
630674.37 4834198.9 323.52 68
630675.35 4834199.86 323.37 65
630674.47 4834199.1 323.43 71
630675.84 4834199.01 323.44 90
630675.64 4834199.07 323.44 79
630674.57 4834198.82 323.43 74
630675.54 4834199.34 323.42 74
630684.08 4834189.76 329.34 0
630685.25 4834190.39 329.61 0
630684.19 4834189.76 329.35 0
630685.18 4834190.58 329.54 0
630683.53 4834191.24 328.73 0
630685.43 4834189.56 328.7 0
630685.33 4834190.16 329.52 0
630683.65 4834191.25 329.29 0
630685.13 4834190.44 329.53 0
630683.55 4834191.2 329.29 0
630683.62 4834191.03 329.42 2
630685.2 4834190.24 329.54 0
630683.92 4834190.52 329.76 0
630683.98 4834190.03 328.9 0
630683.61 4834191.36 328.94 0
630683.55 4834191.5 328.69 0
630685.09 4834190.52 329.13 0
630683.69 4834190.84 329.51 2
630684.8 4834191.65 329.52 0
630684.03 4834189.9 329.17 0
630684.09 4834190.03 328.89 2
630683.73 4834191.05 329.36 2
630684.82 4834191.29 329.55 0
630684.91 4834191.02 329.37 0
630685.28 4834190.03 329.54 0
630685 4834190.78 329.27 0
630683.87 4834190.67 329.56 0
630683.88 4834190.33 329.87 0
630683.75 4834190.68 329.64 0
630684.87 4834191.44 329.57 0
630683.46 4834191.43 328.63 0
630683.82 4834190.48 329.69 0
630684.96 4834191.19 329.46 0
630683.8 4834190.85 329.43 2
630685.34 4834189.86 329.62 0
630684.13 4834189.91 329.18 0
630685.05 4834190.93 329.32 0
630685.14 4834190.67 329.16 0
630684.73 4834191.52 329.61 0
630683.39 4834191.6 328.49 0
630685.4 4834193.25 329.65 0
630684.09 4834193.57 328.45 2
630684.18 4834193.34 329.19 0
630685.38 4834193.03 329.71 0
630685.32 4834193.47 329.63 0
630685.24 4834193.69 329.6 0
630684.27 4834192.78 329.48 0
630685.22 4834193.45 329.63 0
630684.34 4834192.95 330.12 0
630683.23 4834192.05 328.51 0
630683.34 4834192.08 328.39 0
630685.1 4834193.78 329.21 0
630684.24 4834193.19 329.43 0
630685.2 4834193.8 329.19 0
630684.21 4834192.94 329.28 0
630684.38 4834192.86 330.55 0
630685.32 4834193.19 329.51 0
630685.44 4834192.87 329.91 0
630684.13 4834193.15 329.22 0
630684.09 4834193.25 328.83 0
630684.04 4834193.38 328.52 2
630684.13 4834193.47 328.87 0
630684.33 4834192.92 329.31 0
630684.27 4834192.82 330.31 0
630685.15 4834193.63 329.49 0
630684.37 4834192.5 329.28 0
630683.33 4834191.77 328.33 0
630670.77 4834187.94 289.69 10
630670.79 4834187.77 289.67 8
630670.71 4834188.3 289.7 2
630670.58 4834188.57 289.89 0
630670.74 4834188.12 289.7 8
630670.82 4834187.58 289.65 0
630670.6 4834188.49 289.66 8
630670.65 4834188.16 289.62 5
630670.66 4834188.64 289.72 0
630670.68 4834188.48 289.69 0
630670.63 4834188.32 289.66 13
630670.68 4834187.99 289.62 0
630683.78 4834193.93 324.98 52
630685.09 4834193.92 324.94 76
630684.08 4834193.45 324.91 46
630683.9 4834193.95 324.93 63
630685.24 4834193.19 324.98 16
630683.35 4834191.93 324.95 2
630684.34 4834192.73 324.94 19
630683.99 4834193.7 324.94 46
630685.18 4834193.68 324.94 71
630684.54 4834191.85 325.04 0
630684.21 4834192.75 324.98 27
630684.59 4834192.04 324.97 0
630684.04 4834193.21 324.96 41
630684.98 4834193.92 324.97 71
630683.87 4834193.69 324.98 46
630685.35 4834193.2 324.95 5
630683.95 4834193.46 324.98 46
630685.15 4834193.43 324.97 57
630685.27 4834193.43 324.93 41
630684.13 4834192.98 324.97 32
630685.33 4834192.95 325 2
630684.43 4834192.49 324.93 5
630685.44 4834192.96 324.95 2
630684.29 4834192.52 324.98 8
630683.26 4834192.17 324.97 8
630684.26 4834192.97 324.94 30
630684.51 4834192.26 324.96 2
630684.17 4834193.21 324.93 32
630685.07 4834193.67 324.96 68
630683.25 4834191.85 324.98 2
630684.38 4834192.29 324.98 5
630685.41 4834192.71 325 0
630684.46 4834192.06 324.99 2
630672.16 4834198.65 323.49 60
