1536
630758.17 4834211.73 131.02 6
630758.34 4834211.26 131.01 7
630748.09 4834180.55 110.08 30
630747.89 4834180.48 110.08 29
630748.04 4834180.43 110.08 23
630746.94 4834180.42 110.06 26
630777.73 4834202.01 128.89 28
630779.37 4834202.33 128.91 29
630778.85 4834202.82 128.91 32
630778.81 4834202.28 128.89 20
630777.81 4834201.48 128.9 29
630779.19 4834201.87 128.91 20
630777.97 4834202.77 128.89 30
630779.31 4834200.9 128.88 32
630777.71 4834202.67 128.9 33
630778.98 4834201.82 128.89 29
630779.45 4834201.81 128.9 24
630779.14 4834201.36 128.88 29
630777.57 4834202.36 128.89 32
630779.71 4834202.41 128.91 28
630778.12 4834201.73 128.9 26
630777.88 4834202.2 128.91 35
630778.4 4834200.77 128.91 33
630778.23 4834201.25 128.92 32
630778.28 4834200.68 128.91 30
630777.74 4834201.9 128.9 32
630777.65 4834202.53 128.9 29
630778.64 4834202.74 128.9 32
630779.6 4834200.75 128.9 20
630779.02 4834202.34 128.91 30
630777.89 4834200.95 128.9 28
630779.36 4834201.39 128.9 26
630778.04 4834202.25 128.89 28
630778.05 4834201.72 128.92 33
630778.2 4834201.21 128.9 29
630779.53 4834200.92 128.91 29
630777.91 4834201.43 128.89 33
630778.08 4834200.96 128.9 32
630779.52 4834201.28 128.9 26
630733.1 4834180.77 109.8 1
630733.31 4834182.43 109.8 0
630733.02 4834181.31 109.8 1
630733.38 4834181.64 109.79 0
630733.62 4834182.26 109.82 1
630732.55 4834181.02 109.8 2
630732.73 4834181.17 109.82 3
630734.01 4834180.52 109.79 0
630732.95 4834181.85 109.78 0
630734.57 4834182.2 109.8 0
630734.73 4834181.12 109.81 0
630733.8 4834181.76 109.81 0
630733.66 4834181.47 109.81 0
630732.72 4834180.54 109.81 3
630733.49 4834181.95 109.8 0
630734.16 4834180.79 109.81 0
630733.55 4834180.57 109.79 1
630733.47 4834181.1 109.8 1
630732.55 4834181.67 109.83 6
630733.83 4834180.99 109.78 0
630733.98 4834181.27 109.81 0
630734.65 4834181.66 109.8 0
630732.91 4834180.68 109.83 3
630732.87 4834182.38 109.79 1
630733.3 4834182.17 109.81 1
630734.64 4834182.46 109.79 0
630769.4 4834204.33 128.95 28
630769.48 4834203.8 128.95 30
630769.13 4834203.79 128.96 29
630769.63 4834203.87 128.98 33
630768.91 4834203.09 128.89 2
630769.21 4834203.27 128.94 28
630769.8 4834203.4 129 33
630769.56 4834203.28 128.98 26
630768.57 4834203.31 128.88 1
630769.29 4834204.79 128.95 33
630770.08 4834203.34 129.01 32
630769.02 4834202.85 129.89 14
630769.97 4834202.93 128.99 34
630768.98 4834204.84 128.95 32
630769.91 4834203.82 128.99 33
630770.59 4834204.83 128.94 25
630769.57 4834204.75 128.97 32
630770.65 4834204.67 128.94 23
630768.71 4834202.94 129.33 3
630769.46 4834204.33 128.97 33
630769.05 4834204.31 128.95 30
630768.57 4834204.05 128.96 35
630769.74 4834204.28 128.98 35
630768.74 4834203.57 128.94 32
630770.25 4834202.87 129.01 32
630770.72 4834204.14 128.95 29
630770.76 4834204.37 128.94 33
630769.32 4834204.85 128.93 29
630713.93 4834181.26 110.05 26
630714.11 4834180.76 110.06 21
630713.33 4834182.2 110.07 24
630713.62 4834181.5 110.08 26
630713.57 4834182.25 110.07 29
630713.5 4834181.13 110.07 19
630713.44 4834181.98 110.09 25
630713.79 4834181.02 110.08 21
630713.97 4834180.54 110.08 23
630713.41 4834181.67 110.07 23
630713.75 4834181.75 110.06 26
630713.27 4834182.47 110.09 28
630715.33 4834177.97 109.91 34
630715.41 4834177.43 109.93 34
630715.49 4834176.89 109.97 35
630716.54 4834177.49 109.9 8
630715.55 4834176.8 109.98 25
630716.4 4834177.17 109.91 10
630715.01 4834177.68 110.02 19
630716.36 4834177.97 109.88 11
630716.71 4834177.02 109.97 8
630715.36 4834176.72 109.99 20
630715.88 4834177.01 109.92 33
630715.8 4834177.56 109.9 33
630715.19 4834177.2 110.01 20
630715.37 4834177.29 109.97 26
630715.19 4834177.79 109.97 24
630716.23 4834177.65 109.88 10
630728.54 4834175.43 109.86 10
630729.55 4834175.25 109.94 3
630729.38 4834175.7 109.85 7
630728.72 4834174.96 109.92 7
630729.66 4834175.56 109.89 7
630729.4 4834175.67 109.86 32
630729.02 4834175.37 109.89 33
630728.57 4834174.82 109.94 8
630728.23 4834175.73 109.81 6
630728.4 4834175.27 109.85 11
630729.18 4834174.29 109.92 6
630729.83 4834175.11 110.01 5
630729.48 4834175.11 109.98 21
630736.41 4834191.95 109.85 23
630736.72 4834192.12 109.84 33
630736.17 4834193.57 109.87 32
630735.06 4834192.55 109.83 10
630736.88 4834193.43 109.89 34
630736.25 4834193.03 109.85 20
630736.11 4834192.9 109.86 30
630734.9 4834193.62 109.82 29
630734.98 4834193.09 109.82 29
630735.98 4834192.55 109.84 32
630736.29 4834192.42 109.86 29
630735.03 4834192.31 109.86 23
630735.21 4834191.81 109.84 21
630735.94 4834193.39 109.89 35
630735 4834191.62 109.83 21
630736.16 4834192.06 109.84 33
630736.48 4834193.72 109.86 30
630736.56 4834193.2 109.82 17
630735.81 4834193.03 109.84 29
630734.85 4834192.79 109.84 15
630736.33 4834192.49 109.86 33
630736.47 4834191.93 109.86 26
630736.64 4834192.67 109.8 5
630735.15 4834192.01 109.83 24
630735.63 4834193.52 109.84 30
630734.83 4834191.63 109.83 16
630734.83 4834192.1 109.84 24
630714.4 4834193.03 109.79 1
630713.35 4834193.63 109.86 32
630713.2 4834193.56 109.86 34
630712.34 4834192.39 109.81 2
630712.98 4834193.69 109.89 34
630713.22 4834192.08 109.81 3
630713.06 4834193.17 109.82 5
630712.88 4834193.66 109.87 33
630713.43 4834193.11 109.8 5
630714.5 4834193.61 109.85 10
630712.51 4834191.91 109.81 3
630713.14 4834192.62 109.82 1
630713.41 4834192.19 109.81 2
630713.51 4834192.58 109.77 1
630713.38 4834193.07 109.84 1
630713.59 4834192.05 109.78 1
630713.56 4834192.58 109.81 1
630713.73 4834192.09 109.81 1
630712.32 4834191.7 109.79 2
630713.06 4834193.16 109.81 2
630713.59 4834191.71 109.81 2
630713.24 4834192.67 109.79 1
630713.91 4834191.61 109.82 2
630714.22 4834193.53 109.84 7
630773.87 4834208.32 128.89 19
630773.61 4834207.84 128.9 28
630773.42 4834207.7 128.91 33
630775.2 4834208.12 128.9 15
630774.27 4834208.83 128.91 29
630775.28 4834207.6 128.89 26
630773.04 4834207.97 128.91 30
630774.47 4834207.57 128.9 33
630773.08 4834208.64 128.92 33
630773.21 4834207.5 128.9 32
630773.79 4834209.45 128.92 32
630774.1 4834209.3 128.91 34
630773.96 4834208.98 128.9 30
630775.04 4834209.18 128.88 25
630775.12 4834208.65 128.89 17
630774.13 4834208.51 128.9 16
630773.53 4834208.36 128.92 26
630773.95 4834207.8 128.89 24
630775.2 4834208.88 128.88 6
630773.71 4834209.34 128.9 28
630774.78 4834207.42 128.91 26
630773.25 4834208.17 128.92 33
630775.02 4834209.35 128.9 25
630773.45 4834208.89 128.92 28
630774.61 4834207.89 128.92 33
630774.3 4834208.04 128.88 33
630773.37 4834209.42 128.9 26
630773.79 4834208.83 128.88 26
630774.43 4834208.36 128.91 32
630754.1 4834207.41 121.94 0
630753.45 4834209.44 122.83 0
630754.04 4834207.62 123.12 0
630738.06 4834187.54 109.84 29
630737.57 4834188.21 109.82 25
630739.09 4834187.33 109.86 28
630738.55 4834188.35 109.85 30
630737.92 4834187.26 109.82 21
630737.22 4834189.17 109.84 26
630737.71 4834188.52 109.86 29
630737.38 4834187.84 109.82 21
630739.08 4834188.12 109.89 33
630737.46 4834187.3 109.81 15
630738.71 4834187.27 109.84 32
630737.06 4834187.61 109.82 19
630738.99 4834187.65 109.86 34
630738.73 4834189.1 109.88 32
630737.39 4834188.69 109.82 23
630739.16 4834187.18 109.88 29
630738.46 4834189.09 109.86 35
630737.21 4834188.91 109.82 25
630739.26 4834187.63 109.9 33
630739.01 4834187.86 109.86 28
630737.74 4834187.74 109.82 19
630738.81 4834188.13 109.87 30
630737.3 4834188.38 109.81 29
630738.93 4834188.39 109.86 30
630738.64 4834187.81 109.84 32
630737.53 4834189 109.83 30
630738.85 4834188.92 109.85 26
630738.64 4834188.61 109.87 34
630737.88 4834188.03 109.86 32
630738.47 4834188.89 109.85 32
630738.91 4834188.61 109.87 33
630768.48 4834196.99 129.97 2
630767.21 4834196.74 129.97 2
630766.68 4834198.18 128.95 10
630766.84 4834197.1 129.04 30
630767.21 4834196.96 129.05 1
630767.13 4834198.25 129.94 6
630767.13 4834197.27 129.96 2
630768.5 4834197.14 129.98 6
630768.33 4834198.05 129.94 3
630768.48 4834197.81 129.97 6
630767.28 4834196.45 129.03 14
630767.48 4834197.3 129.98 6
630767.1 4834197.63 129.95 6
630767.44 4834196.71 129.99 6
630766.39 4834196.42 128.97 38
630766.98 4834198.31 129.92 3
630768.17 4834198.06 129.94 6
630767.82 4834196.36 130.01 7
630767.65 4834196.83 130 6
630768.34 4834197.6 129.96 7
630767.61 4834196.25 130.01 7
630768.31 4834198.28 129.95 7
630766.92 4834196.57 129.05 33
630767.06 4834197.79 129.93 3
630767.3 4834197.78 129.97 6
630767.27 4834197.17 129.96 6
630768.41 4834197.51 129.97 3
630766.76 4834197.64 128.99 24
630766.94 4834198.09 129.94 7
630746.94 4834194.29 109.92 37
630746.37 4834194.1 109.85 26
630746.21 4834195.16 109.9 32
630746.83 4834193.92 109.89 29
630746.48 4834194.89 109.91 33
630746.13 4834195.69 109.93 30
630746.12 4834195.86 109.92 34
630746.29 4834194.63 109.89 30
630746.41 4834195.77 109.97 37
630746.76 4834194.79 109.95 38
630746.59 4834195.28 109.95 37
630746.3 4834195.38 109.92 35
630746.65 4834194.41 109.89 29
630767.57 4834210.15 125.48 11
630766.47 4834211.25 125.77 35
630766.94 4834211.12 125.65 29
630767.12 4834210.62 125.55 29
630767.39 4834210.63 125.54 30
630768.29 4834211.79 125.5 20
630766.86 4834210.78 125.63 33
630767.29 4834210.14 125.47 8
630768.06 4834211.61 125.54 11
630766.55 4834210.73 125.68 30
630766.38 4834209.94 125.51 15
630767.21 4834211.13 125.62 30
630757.95 4834206.04 125.5 14
630758.81 4834206.42 125.47 14
630759.21 4834206.09 125.48 7
630758.86 4834207.04 125.49 12
630757.78 4834206.52 125.52 14
630757.35 4834207.24 125.49 11
630757.43 4834206.72 125.51 14
630759.01 4834205.23 125.48 0
630757.32 4834207.01 125.51 17
630758.98 4834205.96 125.51 1
630758.77 4834206.83 125.45 6
630759.04 4834206.56 125.48 12
630758.64 4834206.89 125.45 11
630757.48 4834206.58 125.69 12
630757.61 4834206.99 125.54 15
630759.04 4834207.3 125.51 19
630762.71 4834205.75 128.91 30
630763.86 4834205.83 128.95 29
630762.79 4834206.35 128.92 19
630763.96 4834206.2 128.92 30
630762.22 4834205.62 128.94 26
630762.06 4834206.68 128.96 25
630762.37 4834206.68 128.92 25
630762.14 4834206.15 128.94 26
630762.53 4834205.75 128.92 28
630762.62 4834206.83 128.92 28
630764 4834207.23 128.9 20
630763.14 4834205.4 128.93 35
630763.94 4834205.3 128.95 34
630762.37 4834206.77 128.94 23
630761.96 4834205.24 128.94 26
630763.7 4834206.89 128.92 20
630763.79 4834206.67 128.91 19
630762.45 4834206.27 128.92 17
630762.54 4834206.21 128.91 24
630762.61 4834205.24 128.92 20
630763.78 4834206.36 128.93 21
630762.2 4834207.16 128.94 8
630763.62 4834207.15 128.92 24
630763.95 4834207 128.92 25
630762.88 4834205.28 128.92 32
630762.96 4834205.87 128.92 32
630761.79 4834205.71 128.95 32
630760.08 4834190.83 117.34 2
630759.75 4834190.51 117.39 2
630760.16 4834190.3 117.32 1
630761.32 4834191.22 117.35 2
630759.68 4834189.99 117.35 0
630761.76 4834190.92 117.37 2
630761.68 4834191.45 117.36 2
630761.4 4834190.68 117.36 1
630759.83 4834189.97 117.37 2
630760.24 4834189.77 117.33 1
630759.91 4834189.43 117.37 2
630761.48 4834190.15 117.35 1
630761.56 4834189.61 117.35 1
630759.67 4834191.04 117.39 5
630714.82 4834183.99 109.83 5
630714.6 4834182.85 109.84 17
630715.16 4834184.6 109.81 1
630715.87 4834182.64 109.81 0
630715.69 4834183.13 109.81 1
630716.56 4834184.29 109.8 0
630714.74 4834184.54 109.8 1
630716.21 4834183.27 109.8 1
630714.59 4834182.87 109.84 16
630716.59 4834183.51 109.79 0
630716.38 4834184.78 109.8 0
630716.23 4834184.48 109.78 0
630716.59 4834183.2 109.78 1
630716.5 4834183.74 109.77 1
630715.31 4834183.51 109.79 0
630716.29 4834182.73 109.79 1
630715.48 4834183.03 109.8 1
630715.13 4834184 109.8 3
630716.13 4834183.81 109.79 1
630716.05 4834184.35 109.79 1
630715.34 4834184.11 109.81 1
630716.76 4834183.03 109.8 1
630714.99 4834182.91 109.81 2
630714.9 4834183.46 109.79 1
630716.74 4834183.8 109.78 0
630714.95 4834184.48 109.79 1
630716.41 4834183.99 109.78 0
630716.34 4834184.82 109.77 1
630716.67 4834182.66 109.77 1
630715.51 4834183.62 109.81 0
630716.42 4834184.27 109.79 1
630726.2 4834189.09 109.8 1
630726.55 4834187.31 109.83 19
630726.56 4834188.11 109.82 11
630727.24 4834187.28 109.86 26
630725.91 4834187.37 109.78 0
630727.94 4834187.89 109.86 29
630727.6 4834187.47 109.85 29
630727.17 4834189.3 109.83 10
630727.77 4834188.38 109.86 30
630727.34 4834188.82 109.83 19
630726.2 4834188.27 109.82 6
630727.52 4834188.34 109.84 25
630727.87 4834187.38 109.84 25
630727.35 4834189.08 109.85 21
630726.03 4834188.74 109.8 2
630727.16 4834187.82 109.86 25
630727.59 4834188.87 109.86 25
630726.38 4834187.79 109.82 5
630725.85 4834189.22 109.8 2
630726.38 4834188.61 109.84 7
630727.7 4834187.86 109.84 25
630727 4834188.91 109.84 15
630725.83 4834187.91 109.77 0
630727.08 4834188.37 109.83 24
630726.91 4834187.13 109.84 21
630726.73 4834187.62 109.84 11
630727.43 4834188.55 109.85 25
630727.52 4834188.01 109.85 28
630721.24 4834202.75 109.82 2
630720.08 4834201.97 109.83 6
630720.91 4834202.72 109.79 1
630720.15 4834201.5 109.8 1
630720.48 4834201.46 109.79 1
630719.32 4834200.85 109.79 0
630719.9 4834202.46 109.85 29
630720.23 4834200.95 109.81 1
630721.09 4834202.24 109.8 1
630719.54 4834202.61 109.84 32
630720.26 4834201.48 109.82 1
630720.44 4834200.99 109.83 1
630719.1 4834200.72 109.8 0
630719.99 4834202.58 109.84 25
630720.56 4834200.92 109.79 1
630719.14 4834201.34 109.81 0
630719.72 4834202.13 109.83 25
630720.25 4834200.67 109.79 1
630719.9 4834201.63 109.78 1
630720.39 4834201.99 109.81 1
630720.08 4834201.16 109.8 0
630720.07 4834202.04 109.82 6
630720.31 4834202.52 109.82 20
630721.26 4834201.76 109.78 1
630757.23 4834194 117.37 6
630755.93 4834193.95 117.37 5
630755.4 4834195.41 117.45 8
630755.79 4834194.8 117.38 5
630755.87 4834194.26 117.38 5
630757.27 4834195.99 117.36 5
630755.14 4834195.4 117.37 6
630756.84 4834194.33 117.35 6
630756.67 4834194.81 117.36 6
630757.01 4834193.86 117.36 6
630756.71 4834195.44 117.36 5
630756.53 4834195.92 117.37 5
630756.06 4834195.39 117.35 5
630755.58 4834194.91 117.38 6
630755.23 4834195.89 117.43 8
630755.76 4834194.43 117.38 5
630755.49 4834194.44 117.36 5
630756.88 4834194.96 117.37 6
630757.06 4834194.48 117.37 6
630756.22 4834194.33 117.34 5
630756.14 4834194.86 117.36 5
630756.49 4834195.29 117.35 6
630755.67 4834193.97 117.37 6
630755.63 4834195.83 117.47 10
630755.71 4834195.31 117.45 10
630756.32 4834195.77 117.35 5
630755.98 4834195.92 117.36 5
630755.32 4834194.92 117.36 6
630718.2 4834189.95 109.83 3
630718.57 4834189.7 109.81 1
630717.02 4834191.2 109.8 12
630717.73 4834190.55 109.82 8
630716.92 4834190.34 109.83 19
630718.75 4834191.15 109.8 0
630716.93 4834189.5 109.83 23
630716.85 4834190.03 109.84 26
630718.38 4834189.47 109.81 0
630718.03 4834190.44 109.84 3
630717.55 4834191.03 109.81 2
630718.41 4834190.78 109.82 1
630717.1 4834189.86 109.84 21
630718.93 4834189.72 109.8 1
630717.85 4834190.92 109.83 3
630717.19 4834190.13 109.8 15
630716.93 4834189.67 109.84 19
630719.01 4834191.24 109.82 0
630717.38 4834191.51 109.81 15
630718.08 4834189.58 109.8 0
630717.28 4834189.37 109.84 19
630718.33 4834191.33 109.82 1
630718.85 4834190.26 109.81 2
630717.11 4834190.66 109.81 7
630717.9 4834190.06 109.81 5
630718.49 4834190.24 109.82 1
630717.27 4834189.59 109.81 19
630717.68 4834191.4 109.84 15
630718.77 4834190.79 109.81 1
630718.92 4834190.67 109.79 0
630718.69 4834191.32 109.81 1
630776.35 4834191.44 117.6 10
630775.58 4834191.32 117.68 11
630775.29 4834191.47 117.64 16
630776.72 4834191.59 117.64 11
630759.33 4834190.94 117.35 2
630758.22 4834190.54 117.36 6
630758.28 4834191.11 117.39 7
630758.6 4834189.68 117.36 3
630758.14 4834190.12 117.36 5
630758.57 4834189.6 117.36 3
630758.4 4834190.07 117.36 5
630758.45 4834190.62 117.37 5
630757.88 4834191.49 117.37 6
630757.99 4834191.18 117.38 6
630759.51 4834190.47 117.36 0
630757.33 4834190.1 117.39 6
630758.81 4834189.64 117.38 2
630757.5 4834189.62 117.39 7
630758.63 4834190.13 117.36 3
630758.44 4834190.74 117.36 5
630759.16 4834191.42 117.36 3
630758.07 4834190.65 117.38 6
630758.05 4834191.02 117.38 6
630758.1 4834191.59 117.37 6
630758.22 4834189.58 117.37 3
630758.52 4834190.21 117.36 3
630758.36 4834191.27 117.35 5
630744.02 4834198.79 109.84 33
630745.17 4834199.18 109.94 37
630744.06 4834199.06 109.86 38
630744.72 4834199.7 109.9 38
630745.3 4834198.83 109.94 33
630743.94 4834199.32 109.85 30
630745.07 4834198.74 109.89 38
630744.82 4834200.16 109.95 41
630744.54 4834200.18 109.9 37
630745.13 4834199.91 109.97 35
630745.21 4834199.37 109.94 35
630743.86 4834199.86 109.84 33
630745.48 4834199.96 110.02 35
630744.89 4834199.22 109.89 37
630745.56 4834199.43 110 34
630743.89 4834198.75 109.85 34
630745.35 4834198.69 109.95 37
630745.64 4834198.9 109.98 33
630744.99 4834199.67 109.95 42
630743.89 4834199.54 109.86 35
630745.05 4834200.45 109.99 38
630744.24 4834198.57 109.86 35
630745.72 4834198.36 109.99 33
630765.69 4834204.81 129.01 12
630766.14 4834204.23 129 35
630764.17 4834203.71 128.96 33
630764.39 4834204.64 128.94 25
630765.87 4834204.34 128.99 32
630764.98 4834203.42 128.97 12
630764.62 4834203.1 128.9 23
630764.55 4834203.61 128.93 32
630764.81 4834204.64 128.99 38
630765.97 4834202.93 128.96 32
630764.63 4834204.37 129.06 11
630766.02 4834204.76 128.97 30
630765.97 4834204.69 128.98 35
630766.21 4834203.39 128.93 34
630765.15 4834203.68 128.96 34
630764.47 4834204.11 129 7
630765.81 4834203.97 129.03 16
630766.18 4834203.73 128.93 32
630766.04 4834203.86 128.95 24
630764.98 4834204.17 129.04 37
630766.1 4834204.24 128.98 29
630764.47 4834204.81 128.99 26
630764.81 4834203.88 128.98 32
630764.25 4834203.18 128.97 33
630765.32 4834203.22 128.97 35
630766.26 4834203.21 128.92 30
630765.65 4834205.04 129 24
630765.73 4834204.51 129.01 23
630764.1 4834204.23 128.99 32
630765.89 4834203.46 128.96 24
630765.15 4834202.95 128.93 34
630732.49 4834187.48 110.01 23
630730.4 4834187.61 109.97 29
630730.57 4834187.12 109.98 32
630732.52 4834188.27 109.96 25
630732.32 4834188.56 109.97 34
630732.16 4834189.25 109.97 26
630730.42 4834187.59 109.97 37
630732.24 4834189.1 109.96 29
630732.41 4834188.03 109.95 35
630730.82 4834187.37 110.02 25
630732.34 4834188.76 109.95 30
630730.34 4834188.13 109.99 35
630741.43 4834178.26 110.11 10
630741.22 4834178.23 110.11 15
630740.18 4834178.12 110.08 28
630740.48 4834178.16 110.05 21
630740.08 4834178.11 110.06 24
630752.7 4834202.09 117.62 10
630752.78 4834202.65 117.39 6
630752.53 4834202.58 117.64 11
630766.44 4834193.25 117.47 1
630767.86 4834192.36 117.37 3
630766.29 4834191.61 117.37 3
630768.08 4834193.36 117.35 6
630768.32 4834191.78 117.34 2
630768.16 4834192.83 117.35 3
630766.68 4834191.69 117.34 3
630766.45 4834192.91 118.97 1
630766.6 4834192.22 117.34 3
630768.24 4834192.3 117.34 3
630767.7 4834193.42 117.38 7
630766.52 4834192.75 117.35 5
630767.78 4834192.89 117.38 5
630767.94 4834191.82 117.37 3
630743.09 4834187.59 109.93 34
630742.4 4834187.86 109.94 29
630743.7 4834188.66 109.87 29
630743.72 4834187.35 109.89 30
630742.25 4834189.16 109.92 33
630743.74 4834189.2 109.89 32
630743.56 4834188.44 109.89 26
630741.68 4834187.31 110 21
630742.15 4834187.11 109.89 34
630741.98 4834188.17 109.97 26
630742.6 4834188.21 109.93 30
630742.96 4834187.24 109.87 30
630742.32 4834188.4 109.93 29
630743.48 4834188.98 109.88 26
630742.24 4834188.94 109.91 28
630742.55 4834189.06 109.94 33
630742.48 4834187.33 109.9 30
630741.9 4834188.71 109.98 26
630741.82 4834189.26 109.97 26
630742.78 4834187.73 109.92 30
630742.73 4834188.57 109.93 32
630743.64 4834187.9 109.88 29
630742.07 4834187.63 109.99 25
630742.43 4834188.68 109.91 33
630743.53 4834189.14 109.87 30
630742.91 4834188.08 109.95 32
630723.07 4834173.54 110.08 25
630723.31 4834172.76 110.1 23
630723.15 4834173.01 110.08 20
630722.86 4834173.44 110.07 2
630723.03 4834172.97 110.08 3
630723.2 4834172.5 110.11 2
630723.13 4834173.25 110.09 23
630781.16 4834192.88 114.59 6
630779.86 4834192.89 114.6 0
630780.02 4834191.85 114.55 5
630779.87 4834192.44 116.7 6
630781.53 4834193.04 114.59 6
630779.94 4834192.37 114.56 3
630781.24 4834192.35 114.57 3
630781.61 4834192.52 114.56 5
630716.21 4834185.27 109.79 0
630714.6 4834185.44 109.79 2
630714.63 4834186.07 109.82 5
630715.35 4834186.89 109.82 19
630714.81 4834185.57 109.8 2
630716.01 4834186.96 109.8 8
630714.98 4834185.09 109.81 2
630715.81 4834185.97 109.79 0
630715.73 4834186.51 109.8 3
630715.7 4834185.93 109.79 0
630715.89 4834185.43 109.81 0
630715.97 4834184.89 109.8 0
630714.66 4834185.08 109.8 2
630714.57 4834185.62 109.8 5
630715.88 4834185.45 109.78 0
630716.26 4834185.35 109.77 1
630716.03 4834185.75 109.77 0
630715.65 4834187.05 109.84 23
630715.85 4834186.25 109.81 0
630716.18 4834185.88 109.78 1
630716.1 4834186.42 109.77 1
630716.05 4834184.96 109.78 0
630716.7 4834186.76 109.83 6
630715.53 4834186.41 109.79 1
630715.68 4834186.74 109.82 10
630714.78 4834184.96 109.79 1
630738.32 4834210.23 109.84 30
630737.13 4834210.75 109.84 26
630738.65 4834210.52 109.82 32
630738.14 4834210.71 109.82 32
630738.49 4834211.6 109.8 30
630737.31 4834210.26 109.85 26
630737.17 4834209.8 109.85 32
630737.79 4834211.68 109.82 28
630738.58 4834210.44 109.83 30
630737.3 4834210.26 109.84 30
630737.06 4834209.69 109.83 32
630738.75 4834209.96 109.84 30
630737.06 4834211.84 109.81 26
630739.06 4834209.78 109.82 29
630737.14 4834211.32 109.81 29
630738.9 4834210.84 109.8 30
630738.82 4834211.38 109.8 30
630737.97 4834211.19 109.82 32
630738.98 4834210.31 109.81 30
630738.73 4834209.98 109.83 33
630737.22 4834210.79 109.83 30
630739.12 4834211.81 109.83 33
630737.38 4834209.73 109.84 30
630738.49 4834209.75 109.83 28
630738.57 4834211.06 109.81 32
630737.48 4834209.78 109.87 26
630738.23 4834211.4 109.83 32
630738.4 4834210.92 109.84 29
630734 4834191.68 109.84 30
630733.28 4834193.64 109.85 12
630733.24 4834193.51 109.8 16
630733.32 4834192.97 109.8 29
630733.05 4834193.6 109.82 23
630732.86 4834191.65 109.86 26
630733.48 4834191.9 109.82 29
630734.68 4834193.27 109.85 32
630732.95 4834193.01 109.85 24
630734.48 4834193.06 109.83 29
630734.67 4834192.72 109.82 28
630733.57 4834192.16 109.83 29
630733.4 4834192.44 109.8 28
630733.4 4834192.64 109.82 23
630733.82 4834192.17 109.85 30
630733.46 4834193.15 109.85 20
630734.59 4834193.25 109.83 30
630734.51 4834193.75 109.84 25
630733.64 4834192.66 109.85 21
630734.75 4834192.17 109.84 25
630734.3 4834193.54 109.83 26
630732.87 4834193.56 109.82 26
630733.75 4834191.68 109.84 33
630734.51 4834193.79 109.84 26
630733.11 4834191.92 109.84 23
630733.22 4834193.12 109.81 23
630732.68 4834192.14 109.87 32
630734.65 4834192.58 109.82 25
630733.03 4834192.47 109.84 25
630732.57 4834191.74 109.87 30
630742.79 4834181.44 109.89 37
630743.61 4834182.03 109.87 33
630743.3 4834181.99 109.83 28
630741.79 4834180.82 109.85 29
630742.61 4834181.93 109.87 38
630742.87 4834182.28 109.85 29
630742.43 4834182.42 109.86 32
630742.72 4834180.98 109.88 33
630742.96 4834180.95 109.88 33
630742.2 4834182.41 109.85 33
630741.58 4834181.25 109.86 33
630741.54 4834182.43 109.84 26
630741.62 4834180.45 109.88 32
630743.54 4834180.37 109.9 26
630743.14 4834180.47 109.91 32
630741.62 4834181.9 109.84 28
630743.78 4834181.55 109.86 32
630743.11 4834180.68 109.89 29
630742.89 4834180.51 109.9 32
630741.71 4834181.36 109.84 32
630743.46 4834180.91 109.87 28
630742.37 4834181.93 109.85 35
630742.55 4834181.46 109.87 41
630743.22 4834182.52 109.85 29
630743.38 4834181.44 109.88 28
630742.95 4834181.74 109.86 35
630743.43 4834182.51 109.85 32
630741.75 4834180.76 109.88 37
630743.03 4834181.21 109.88 33
630773.92 4834205.73 128.9 30
630775.15 4834205.7 128.92 30
630774.95 4834206.94 128.91 32
630774.98 4834206.17 128.9 32
630774.28 4834205.33 128.91 33
630773.93 4834206.28 128.92 32
630774 4834205.2 128.9 26
630774.81 4834206.64 128.9 30
630773.69 4834207.31 128.89 24
630773.59 4834207.23 128.9 32
630773.55 4834206.56 128.91 33
630774.64 4834207.1 128.9 32
630774.02 4834207.29 128.89 24
630775.12 4834206.47 128.9 33
630773.84 4834206.25 128.91 28
630773.77 4834206.78 128.9 28
630774.26 4834205.75 128.89 28
630774.1 4834206.78 128.89 25
630773.76 4834206.75 128.92 33
630774.18 4834206.26 128.89 28
630773.38 4834207.03 128.9 32
630774.1 4834205.8 128.92 33
630773.72 4834206.1 128.91 32
630774.06 4834205.17 128.92 32
630773.89 4834205.63 128.91 32
630774.33 4834205.24 128.9 29
630780.94 4834203.22 128.93 35
630780.6 4834204.14 128.9 35
630781.84 4834204.3 128.93 35
630780.81 4834204.12 128.91 32
630782.01 4834203.84 128.94 38
630781.11 4834204.53 128.9 29
630780.88 4834203.59 128.91 34
630781.04 4834205.05 128.9 26
630779.86 4834203.43 128.92 34
630781.19 4834204.01 128.91 32
630780.03 4834202.96 128.92 33
630780.89 4834204.06 128.94 34
630780.55 4834205.01 128.91 29
630780.72 4834204.53 128.92 33
630781.23 4834203.11 128.94 42
630781.06 4834203.59 128.94 35
630781.27 4834203.49 128.91 32
630781.88 4834204.86 128.93 32
630780.26 4834205.07 128.91 29
630780.73 4834204.65 128.91 29
630780.96 4834203.07 128.91 33
630780.77 4834203.68 128.93 35
630780.43 4834204.6 128.9 30
630781.35 4834202.97 128.92 38
630781.67 4834204.77 128.91 32
630788.04 4834204.27 117.55 24
630788.29 4834202.87 117.39 29
630788.12 4834203.36 117.44 32
630787.76 4834204.33 117.52 28
630788.21 4834203.78 117.52 29
630787.86 4834204.76 117.53 25
630788.16 4834204.43 117.54 7
630787.94 4834203.85 117.5 30
630788.39 4834203.28 117.47 28
630787.59 4834204.8 117.51 26
630788.24 4834203.91 117.55 0
630788.07 4834204.97 117.52 17
630791.73 4834196.8 117.63 19
630792.93 4834197.73 117.68 14
630792.43 4834198.3 117.6 23
630792.67 4834196.71 117.66 12
630792.72 4834197.65 117.64 17
630792.59 4834197.25 117.58 24
630791.83 4834197.18 117.54 30
630791.23 4834198.18 117.47 29
630792 4834196.72 117.66 12
630792.89 4834197.18 117.66 12
630791.4 4834197.71 117.48 33
630792.28 4834196.7 117.67 12
630791.57 4834197.25 117.52 32
630792.51 4834197.78 117.57 29
630793.1 4834197.25 117.68 12
630792.05 4834198.33 117.53 26
630792.2 4834197.25 117.57 24
630791.11 4834196.12 117.59 10
630792.13 4834197.79 117.54 25
630792.55 4834198.11 117.61 20
630791.66 4834197.65 117.5 29
630792.75 4834198.22 117.67 15
630791.49 4834198.13 117.48 32
630773.21 4834198.32 129.06 33
630774.34 4834197.81 128.94 37
630773.57 4834196.48 128.91 6
630773.57 4834197.34 128.93 24
630775.04 4834196.5 128.91 25
630773.29 4834197.41 128.95 1
630773.12 4834197.88 128.99 3
630774.17 4834198.29 128.99 35
630773.05 4834198.12 130.01 5
630773.41 4834197.51 128.94 21
630775.25 4834196.8 128.91 12
630773.91 4834196.39 128.91 6
630774.51 4834197.34 128.9 21
630774.69 4834197.45 128.91 12
630773.67 4834198.33 129 32
630773.64 4834196.46 128.9 5
630773.75 4834197.81 128.96 26
630775.1 4834197.84 128.9 32
630773.33 4834198.01 129.04 29
630773.49 4834197 128.91 5
630773.99 4834196.26 128.9 6
630774.85 4834196.42 128.92 29
630773.39 4834197.83 129.01 30
630774.68 4834196.87 128.89 6
630773.74 4834196.86 128.91 6
630773.22 4834197.65 130.02 2
630773.47 4834196.93 128.89 6
630774.87 4834196.97 128.9 6
630773.91 4834196.78 128.9 5
630773.83 4834197.3 128.9 30
630775.17 4834197.33 128.88 6
630774.52 4834197.93 128.94 35
630781.39 4834199.18 129.01 35
630780.86 4834199.97 128.94 29
630780.03 4834200.35 128.91 21
630779.91 4834198.64 128.96 29
630781.2 4834199.05 128.98 35
630781.82 4834199.85 128.96 26
630780.11 4834199.83 128.91 25
630781.95 4834200.43 128.91 20
630780.15 4834198.6 128.97 33
630781.59 4834198.85 129 29
630779.84 4834199.17 128.93 29
630780.38 4834198.57 128.97 32
630781.57 4834198.7 128.99 33
630781.23 4834199.65 128.98 35
630781.35 4834200.44 128.95 28
630781.37 4834198.59 128.99 30
630781.43 4834199.91 128.97 29
630781.9 4834199.33 128.97 28
630780.7 4834200.43 128.92 33
630780.26 4834198.78 128.96 26
630779.88 4834199.98 128.92 32
630781.06 4834200.11 128.96 32
630779.81 4834199.52 128.94 32
630780.89 4834200.58 128.93 35
630780.21 4834199.04 128.97 35
630781.98 4834198.81 128.98 28
630779.98 4834199.06 128.94 32
630780.05 4834199.51 128.93 32
630780.18 4834199.31 128.92 30
630781.51 4834199.38 128.98 29
630781.03 4834199.51 128.97 32
630781.74 4834200.37 128.97 25
630725.61 4834182.89 109.79 0
630724.86 4834183.5 109.81 2
630725.15 4834184.78 109.84 8
630725.26 4834183.86 109.82 6
630724.51 4834183.39 109.81 1
630724.35 4834184.47 109.81 1
630725.69 4834183.3 109.82 0
630724.59 4834182.86 109.8 0
630724.94 4834182.97 109.8 0
630724.91 4834184.81 109.81 1
630724.05 4834184.67 109.8 0
630725.51 4834183.79 109.85 6
630724.78 4834184.04 109.79 0
630724.42 4834182.96 109.8 0
630724.23 4834184.18 109.8 0
630725.33 4834184.29 109.83 5
630723.89 4834184.41 109.81 2
630724.24 4834183.44 109.79 0
630724.06 4834183.93 109.81 0
630724.43 4834183.94 109.8 0
630724.7 4834184.57 109.79 1
630725.44 4834183.37 109.8 0
630724.4 4834183.68 109.79 0
630725.09 4834184.34 109.81 1
630724.76 4834182.71 109.83 1
630724.58 4834183.2 109.81 0
630741.1 4834189.59 110.17 1
630739.58 4834190.28 110.12 21
630740.92 4834190.08 110.19 0
630740.74 4834190.57 110.19 0
630739.4 4834190.77 110.1 24
630739.98 4834189.97 110.35 0
630740.06 4834189.48 110.16 6
630740.57 4834191.06 110.19 0
630739.76 4834189.8 110.13 23
630764.25 4834192.4 126.92 3
630766.26 4834192.89 126.02 5
630764.58 4834192.48 127.96 3
630765.81 4834192.94 127.86 5
630776.24 4834194.83 117.36 3
630777.39 4834195.49 117.38 11
630775.72 4834195.72 117.41 19
630775.65 4834195.91 118.93 0
630777.47 4834194.96 117.36 3
630776.01 4834196.04 119.01 1
630775.96 4834194.14 117.37 6
630775.88 4834194.67 117.35 3
630776.32 4834194.3 117.36 7
630776.08 4834195.88 117.42 19
630775.8 4834195.19 117.39 10
630777.31 4834196.01 117.44 26
630776.16 4834195.35 117.39 19
630719.92 4834183.27 109.8 2
630720.15 4834184.58 109.81 3
630720.86 4834182.62 109.82 2
630720.69 4834183.11 109.83 3
630719.23 4834183.99 109.79 0
630719.75 4834184.34 109.82 1
630720.19 4834183.8 109.8 2
630720.54 4834182.84 109.79 3
630721.27 4834182.84 109.79 2
630719.3 4834184.81 109.8 0
630719.05 4834184.48 109.81 1
630720.33 4834184.09 109.82 3
630720.01 4834184.29 109.79 1
630720.51 4834183.6 109.83 3
630719.55 4834183.17 109.81 2
630719.39 4834184.27 109.79 1
630719.04 4834183.88 109.77 0
630719.63 4834182.64 109.79 1
630719.21 4834183.41 109.78 0
630720.36 4834183.32 109.8 2
630719.83 4834183.81 109.79 1
630721.21 4834184.42 109.79 1
630721.19 4834183.38 109.81 5
630719.58 4834183.01 109.8 1
630719.41 4834183.5 109.8 0
630720 4834182.74 109.79 2
630719.39 4834182.93 109.78 1
630719.84 4834184.77 109.79 1
630721.02 4834184.46 109.81 3
630719.47 4834183.73 109.79 1
630721.1 4834183.92 109.8 5
630738.88 4834186.2 109.84 29
630737.35 4834185.92 109.83 14
630737.3 4834186 109.83 10
630737.38 4834185.46 109.83 7
630738.42 4834186.55 109.84 26
630738.79 4834184.86 109.83 10
630738.24 4834187.04 109.84 26
630738.6 4834186.05 109.84 26
630737.29 4834185.37 109.82 5
630737.71 4834185.68 109.81 15
630739.04 4834185.12 109.82 28
630737.79 4834185.15 109.81 6
630738.96 4834185.66 109.84 29
630738.09 4834186.79 109.83 17
630737.22 4834186.54 109.81 2
630737.46 4834184.92 109.82 3
630738.78 4834185.56 109.85 25
630737.46 4834184.88 109.82 6
630738.44 4834185.83 109.82 17
630738.26 4834186.31 109.82 15
630737.62 4834186.23 109.82 12
630737.17 4834186.41 109.83 2
630737.54 4834186.77 109.8 6
630738.8 4834186.73 109.85 29
630737.14 4834187.07 109.82 11
630738.62 4834185.34 109.81 20
630737.71 4834184.93 109.84 14
630738.96 4834185.06 109.85 25
630739.17 4834186.79 109.85 28
630737.11 4834185.85 109.82 12
630737.53 4834185.42 109.83 2
630739.26 4834186.26 109.84 29
630716.62 4834194.32 109.86 11
630716.31 4834194.41 109.83 14
630716.2 4834194.39 109.83 26
630716.61 4834193.89 109.8 2
630716.14 4834194.9 109.87 26
630715.34 4834194.02 109.82 6
630714.87 4834194.45 109.92 29
630716.49 4834193.92 109.8 0
630714.59 4834194.11 109.87 26
630715.34 4834194.7 109.96 29
630714.95 4834193.94 109.83 24
630716.28 4834193.85 109.79 1
630715.52 4834194.21 109.87 25
630716.12 4834194.92 109.91 29
630715.16 4834194.52 109.87 26
630716.45 4834194.94 109.89 29
630716.53 4834194.42 109.82 24
630716.44 4834194.81 109.88 29
630758.31 4834201.5 129.67 0
630758.15 4834201.12 128.94 5
630759.29 4834202.57 129.75 12
630759.53 4834201.01 129.69 8
630758.93 4834202.77 129.7 10
630757.32 4834200.77 128.92 0
630758.14 4834201.96 129.61 1
630758.26 4834200.67 128.91 3
630759.41 4834202.19 129.71 10
630759.45 4834201.53 129.69 8
630759.37 4834202.06 129.69 8
630757.98 4834201.57 128.93 3
630759.24 4834202.66 129.74 12
630758.1 4834201.69 129 6
630757.86 4834201.07 128.89 1
630757.83 4834202.78 129.01 3
630758 4834202.3 129.03 2
630758.18 4834201.18 128.97 8
630757.71 4834201.97 129.53 1
630757.64 4834202.5 128.92 19
630759.1 4834202.31 129.68 10
630757.78 4834201.6 128.9 1
630758.03 4834202.06 129.59 5
630757.63 4834202.65 128.94 15
630757.77 4834202.17 129.55 2
630758.47 4834201.03 129.7 1
630757.95 4834202.58 129.57 1
630759.44 4834201.38 129.68 8
630759.27 4834201.84 129.68 10
630758.31 4834200.66 128.96 6
630717.28 4834199.81 109.84 1
630717.43 4834198.58 109.79 0
630717.46 4834199.31 109.81 0
630718.83 4834199.16 109.78 0
630717.64 4834198.83 109.82 0
630717.3 4834200.42 109.84 7
630717.08 4834199.54 109.83 3
630718.59 4834198.9 109.79 1
630718.98 4834200.44 109.77 0
630718.39 4834200.26 109.8 0
630718.91 4834198.6 109.8 0
630718.75 4834199.7 109.78 0
630718.77 4834198.42 109.78 1
630717.38 4834199.89 109.81 0
630718.06 4834200.34 109.77 1
630718.92 4834198.8 109.81 0
630718.41 4834199.38 109.79 0
630717.02 4834200.07 109.87 25
630716.9 4834200.03 109.87 32
630717.19 4834198.98 109.84 1
630718.56 4834199.78 109.81 1
630718.74 4834199.29 109.8 0
630717.27 4834198.44 109.81 1
630717.46 4834199.36 109.81 0
630717.54 4834198.83 109.79 0
630718.67 4834200.25 109.76 0
630717.1 4834200.3 109.88 29
630717.26 4834199.05 109.78 0
630717.11 4834199.52 109.85 3
630718.24 4834199.86 109.79 0
630761.87 4834201.5 128.9 8
630761.87 4834202.17 128.93 32
630762.7 4834202.45 128.9 14
630762.93 4834200.88 128.88 0
630762.89 4834202 128.88 0
630763.23 4834201.07 128.88 0
630763.34 4834201.43 128.88 0
630763.4 4834200.6 128.85 0
630762.21 4834201.21 128.88 0
630763 4834202.66 128.9 23
630762.77 4834201.93 128.89 1
630763.24 4834201.1 128.86 0
630762.04 4834201.69 128.92 19
630763.16 4834201.62 128.87 0
630763.08 4834202.14 128.89 1
630763.51 4834200.96 128.89 0
630762.04 4834201.02 128.84 0
630762.99 4834202.39 128.92 6
630763.91 4834202.48 128.9 33
630762.72 4834202.47 128.91 8
630762.38 4834200.74 128.88 0
630763.16 4834201.91 128.88 0
630763.06 4834201.53 128.87 0
630762.85 4834201.41 128.87 0
630739.17 4834195.47 110.02 0
630739.05 4834194.49 109.74 2
630737.95 4834194.77 110.01 29
630737.45 4834195.41 109.99 33
630737.8 4834194.44 109.97 24
630737.67 4834194.28 109.95 37
630737.5 4834195.36 109.98 34
630737.98 4834193.96 109.96 25
630737.42 4834195.91 110 34
630737.62 4834194.93 109.98 26
630737.27 4834195.89 109.98 32
630738.04 4834194.23 110 33
630737.58 4834194.82 109.97 35
630744.66 4834179.77 110.05 33
630744.84 4834179.3 110.13 2
630744.64 4834179.23 110.11 0
630744.47 4834179.69 110.05 30
630745.76 4834180.22 110.05 34
630745.74 4834179.63 110.1 3
630745.94 4834179.74 110.12 30
630732.04 4834176.6 109.88 14
630732.03 4834176.85 109.85 33
630730.99 4834175.88 109.93 8
630730.74 4834177.29 109.8 1
630730.66 4834177.83 109.79 1
630732.46 4834176.69 109.87 28
630732.11 4834176.3 109.94 25
630730.54 4834176.12 109.86 33
630732.37 4834177.23 109.82 17
630731.95 4834177.39 109.84 2
630730.83 4834176.75 109.82 23
630732.06 4834175.94 109.98 10
630731.89 4834176.4 109.9 17
630731.87 4834177.93 109.82 2
630730.91 4834176.21 109.84 32
630732.29 4834177.77 109.8 1
630731.7 4834177.56 109.81 0
630731.52 4834178.05 109.83 0
630731.72 4834176.86 109.83 15
630730.3 4834177.74 109.79 1
630731.55 4834177.32 109.8 0
630730.48 4834177.3 109.82 1
630730.3 4834177.78 109.8 0
630730.38 4834177.2 109.81 10
630730.46 4834176.66 109.82 32
630731.38 4834177.79 109.78 0
630731.87 4834177.08 109.85 17
630730.58 4834176.3 109.84 8
630730.82 4834176.35 109.86 8
630741.39 4834202.69 109.8 1
630740.53 4834200.62 109.85 32
630741.15 4834202.49 109.83 33
630740.35 4834201.1 109.85 29
630739.99 4834202.08 109.94 33
630739.29 4834200.74 109.94 29
630740.44 4834200.73 109.83 29
630740.11 4834202.54 110 32
630739.48 4834200.95 109.95 32
630740.12 4834200.68 109.9 33
630741.44 4834202.64 109.85 1
630740.17 4834201.59 109.87 23
630740.47 4834201.55 109.88 33
630740.2 4834202.3 109.96 32
630741.5 4834201.53 109.84 35
630739.3 4834201.45 109.98 26
630741.52 4834202.1 109.84 30
630740.29 4834202.04 109.93 41
630740.28 4834201.79 109.89 35
630740.04 4834201.22 109.89 25
630739.88 4834202.26 110.03 39
630740.64 4834201.06 109.87 30
630741.32 4834202.01 109.84 35
630740.36 4834201.26 109.85 26
630739.96 4834201.75 109.91 26
630773.97 4834195.5 119.38 2
630774.33 4834195.55 120.51 3
630747.26 4834190.24 109.85 24
630748.12 4834191.34 109.92 28
630748.02 4834191.33 109.92 30
630746.54 4834191.52 109.81 0
630747.71 4834191.51 109.88 32
630746.67 4834189.64 109.82 2
630748.28 4834190.25 109.94 30
630746.9 4834191.23 109.84 10
630747.89 4834191.03 109.89 33
630747.07 4834190.07 109.82 11
630748.19 4834190.85 109.95 34
630747.03 4834189.83 109.82 11
630746.19 4834189.45 109.84 12
630746.59 4834190.18 109.81 5
630748.2 4834190.79 109.95 32
630747.24 4834189.59 109.83 30
630746.43 4834191.27 109.81 1
630747.44 4834189.75 109.85 30
630748.24 4834190.07 109.91 35
630747.08 4834190.74 109.85 17
630746.72 4834191.03 109.79 1
630746.51 4834190.72 109.81 1
630746.86 4834190.9 109.81 2
630746.78 4834191.43 109.81 7
630748.06 4834190.55 109.91 33
630746.95 4834190.36 109.81 10
630746.89 4834190.55 109.83 8
630775.4 4834190.19 111.13 14
630777.01 4834190.85 111.18 0
630776.64 4834190.71 111.16 6
630756.15 4834203.67 128.92 26
630756.96 4834204.36 128.91 3
630756.26 4834203.07 128.93 35
630755.94 4834204.58 128.93 8
630757.13 4834203.9 128.95 33
630756.45 4834203.17 128.95 35
630756.11 4834204.11 128.94 8
630755.75 4834204.47 128.94 23
630756.09 4834203.54 128.96 29
630756.28 4834203.65 128.94 29
630755.92 4834204 128.96 30
630755.77 4834205.05 128.92 2
630756.23 4834203.15 128.93 26
630756 4834204.7 128.9 7
630756.08 4834204.19 128.88 2
630756.79 4834204.83 128.91 7
630755.71 4834204.34 128.96 23
630757.16 4834204.64 128.93 8
630755.79 4834203.81 129 26
630755.87 4834203.27 129 26
630755.58 4834204.94 128.98 12
630755.63 4834204.86 129 6
630743.36 4834200.2 109.85 34
630742.21 4834199.59 109.84 35
630742.63 4834199.27 109.86 37
630743.64 4834199.01 109.85 32
630741.85 4834199.9 109.85 28
630742.56 4834198.63 109.85 38
630742.03 4834200.07 109.84 34
630742.81 4834198.78 109.85 37
630742.13 4834200.37 109.83 30
630742.21 4834199.84 109.84 30
630742.02 4834198.8 109.86 32
630742.38 4834198.75 109.84 30
630743.73 4834198.47 109.85 32
630743.56 4834199.56 109.85 30
630742.45 4834199.76 109.85 37
630742.29 4834199.29 109.84 32
630741.77 4834200.45 109.84 30
630743.78 4834200.39 109.85 32
630743.48 4834200.1 109.86 32
630742.38 4834199.11 109.85 34
630743.53 4834200.52 109.86 37
630743.71 4834200.03 109.87 38
630741.93 4834199.35 109.86 28
630743.72 4834199.23 109.84 37
630742.27 4834200.25 109.84 35
630743.54 4834199.71 109.84 33
630741.86 4834200.55 109.83 34
630768.89 4834199.75 129.92 12
630769.74 4834200.09 128.98 7
630769.77 4834199.35 129.92 5
630768.79 4834200.01 128.97 38
630770.54 4834198.65 130.12 6
630770.27 4834198.36 130.12 3
630769.85 4834199.83 129.89 7
630769 4834198.85 129.93 5
630769.23 4834198.81 129.95 10
630770.2 4834199.56 129.91 12
630768.66 4834199.77 129.91 7
630768.55 4834200.01 128.93 38
630768.56 4834198.85 129.91 3
630769.07 4834199.28 129.93 7
630769.58 4834200.53 128.91 30
630770.03 4834200.04 129.92 10
630770.18 4834198.95 130.1 7
630770.04 4834199.95 129.9 6
630770.11 4834199.44 129.9 6
630769.69 4834199.88 129.9 5
630768.83 4834199.31 129.93 6
630770.02 4834199.37 129.92 7
630770.34 4834198.48 130.12 6
630769.92 4834200.3 128.97 33
630768.62 4834200.47 128.88 3
630770.19 4834198.89 130.09 3
630770.37 4834199.12 130.05 10
630769.84 4834198.82 129.99 3
630769.16 4834198.39 129.96 6
630718.57 4834191.63 109.77 0
630716.98 4834193.34 109.84 0
630718.17 4834192.42 109.82 2
630716.8 4834193.83 109.85 3
630718.44 4834192.93 109.8 1
630718.39 4834192.12 109.8 1
630718.61 4834191.86 109.81 1
630718.49 4834192.69 109.82 1
630718.22 4834192.6 109.78 1
630717.33 4834192.36 109.83 20
630718.36 4834193.46 109.8 0
630717.2 4834192 109.86 1
630718.53 4834192.39 109.81 1
630717.15 4834192.85 109.83 0
630717.02 4834192.48 109.81 10
630718.84 4834191.72 109.8 0
630718.01 4834193.5 109.81 1
630718.04 4834193.09 109.79 1
630717.5 4834191.88 109.82 0
630718.14 4834193.65 109.81 2
630718.66 4834192.21 109.82 0
630718.25 4834191.87 109.82 1
630716.86 4834192.28 109.8 1
630716.85 4834192.96 109.79 1
630718.31 4834193.17 109.81 1
630718.09 4834192.96 109.82 2
630717.86 4834193.57 109.79 1
630716.94 4834191.73 109.86 1
630778.04 4834211.27 128.88 8
630778.4 4834210.19 128.88 2
630778.54 4834210.16 128.87 2
630778.57 4834209.72 128.89 3
630778.67 4834210.21 128.9 2
630779.12 4834211.77 128.88 1
630778.05 4834211.13 128.89 8
630778.46 4834210.67 128.87 1
630779.7 4834211.54 128.9 11
630778.38 4834211.18 128.88 5
630777.88 4834211.6 128.9 15
630778.16 4834211.61 128.91 8
630778.84 4834209.73 128.89 3
630778.28 4834209.68 128.86 2
630779.66 4834210.99 128.9 3
630777.96 4834211.8 128.9 23
630778.5 4834210.67 128.88 1
630778.12 4834210.74 128.89 3
630779.78 4834211.01 128.88 5
630779.46 4834210.83 128.87 0
630778.33 4834211.15 128.91 3
630778.62 4834209.65 128.88 2
630779.29 4834211.3 128.88 1
630778.2 4834210.21 128.86 2
630779.49 4834211.46 128.9 8
630778.3 4834211.7 128.88 8
630779.63 4834210.36 128.88 1
630778.22 4834210.66 128.88 2
630745.7 4834183.81 109.86 30
630744.83 4834182.61 109.85 28
630745.11 4834184.81 109.85 32
630743.83 4834184.84 109.84 32
630745.64 4834183.36 109.85 32
630744.88 4834182.65 109.9 30
630744.16 4834184.63 109.89 34
630744.01 4834184.36 109.84 32
630745.35 4834184.79 109.87 33
630745.53 4834184.3 109.86 33
630744.29 4834183.6 109.85 29
630745.83 4834184.4 109.85 28
630744.7 4834183.14 109.89 32
630744.75 4834183.14 109.84 28
630745.91 4834183.86 109.86 28
630744.59 4834184.21 109.83 28
630745.81 4834182.88 109.87 30
630744.52 4834183.64 109.88 32
630744.51 4834184.74 109.84 28
630744.37 4834183.06 109.85 29
630745.88 4834183.32 109.88 32
630744.34 4834184.13 109.88 30
630744.12 4834184.68 109.88 29
630744.2 4834184.14 109.85 30
630744.18 4834183.88 109.83 30
630745.28 4834184.32 109.84 29
630744.67 4834183.67 109.84 26
630744.53 4834182.92 109.84 30
630745.99 4834183.32 109.85 29
630745.46 4834183.84 109.84 30
630744.36 4834183.4 109.84 30
630772.38 4834199.95 129.94 7
630772.55 4834199.5 129.97 5
630771.9 4834198.35 130 6
630771.11 4834200.5 128.98 12
630771.26 4834199.44 129.94 3
630772.87 4834199.27 129.06 33
630771.59 4834198.53 129.98 6
630771.64 4834200.17 129.93 3
630773.02 4834200.12 128.95 29
630771.43 4834198.98 129.95 6
630772.72 4834199.04 129.98 6
630771.09 4834199.9 129.94 5
630771.44 4834199.18 129.94 2
630771.56 4834199.29 129.95 7
630771.36 4834199.7 129.93 3
630772.7 4834199.73 129.03 35
630770.93 4834200.35 129.92 5
630772.53 4834200.21 129.01 32
630772.21 4834200.41 129.93 6
630771.39 4834199.77 129.94 6
630772.88 4834198.58 130.01 5
630771.8 4834199.12 129.94 3
630772.95 4834198.35 129.03 2
630771.72 4834199.65 129.92 3
630771.22 4834200.24 129.92 6
630771.52 4834198.65 129.97 2
630771.73 4834198.82 129.97 6
630771.88 4834198.6 129.97 2
630771.28 4834200.23 129.91 5
630727.06 4834199.4 109.85 25
630726.79 4834200.25 109.85 28
630726.97 4834199.77 109.85 25
630726.21 4834198.36 109.83 26
630725.85 4834199.32 109.84 24
630727.48 4834198.72 109.84 23
630726.98 4834199.94 109.85 28
630727.15 4834199.28 109.85 24
630725.8 4834199.28 109.84 21
630727.14 4834198.85 109.86 24
630726.33 4834198.79 109.85 26
630727.39 4834199.44 109.87 25
630727.75 4834198.46 109.87 30
630725.88 4834198.74 109.84 11
630726.16 4834199.28 109.84 26
630727.4 4834199.26 109.84 23
630727.32 4834198.8 109.86 25
630727.57 4834198.95 109.87 26
630727.03 4834200.42 109.88 33
630727.31 4834199.8 109.85 25
630726.03 4834198.84 109.82 20
630725.8 4834200.26 109.83 14
630727.21 4834199.93 109.86 28
630727.23 4834200.34 109.86 26
630726.9 4834200.48 109.85 28
630725.98 4834199.78 109.84 21
630726.11 4834205.5 111.51 1
630726.15 4834205.7 110.25 7
630726.26 4834205.46 111.53 23
630726.44 4834205.24 111.45 1
630726.18 4834205.11 110.9 2
630726.53 4834205.55 110.15 6
630726.43 4834205.6 110.08 2
630716.84 4834207.68 110.03 30
630717.77 4834207.46 110 34
630718.78 4834208.55 109.98 32
630718.96 4834208.07 109.97 30
630717.96 4834207.83 109.99 34
630717.6 4834209.4 110.03 29
630717.29 4834209.46 110.03 34
630717.6 4834207.95 110.01 29
630718.6 4834209.04 110.02 37
630717.42 4834208.44 110.03 32
630717.76 4834208.35 109.99 28
630718.43 4834209.53 110.03 38
630718.77 4834209.57 110.03 35
630717.68 4834208.88 110.01 29
630718.95 4834209.08 110.02 33
630717.53 4834207.84 109.99 25
630717.43 4834209.28 110.02 16
630717.61 4834208.8 110.03 33
630717.78 4834208.31 110.01 32
630717.37 4834208.91 110.02 29
630717.45 4834208.37 110.01 28
630717.84 4834207.83 109.98 26
630719.02 4834209.06 109.98 29
630739.31 4834180.52 109.85 32
630739.85 4834181.97 109.82 21
630740.56 4834180.66 109.85 25
630739.52 4834181.91 109.82 15
630740.21 4834181.63 109.84 26
630740.38 4834181.14 109.85 30
630740.2 4834181.02 109.84 30
630741.11 4834182.53 109.83 15
630739.44 4834182.44 109.83 15
630739.6 4834181.36 109.84 25
630739.68 4834180.83 109.84 26
630741.22 4834182.22 109.85 25
630741.27 4834181.45 109.85 33
630741.27 4834181.41 109.86 34
630740.07 4834180.89 109.83 26
630741.1 4834181.89 109.84 20
630739.83 4834182.49 109.82 11
630741.43 4834180.37 109.87 32
630739.67 4834182.45 109.83 19
630740.02 4834181.5 109.84 26
630740.37 4834180.54 109.85 25
630741.4 4834181.73 109.86 33
630741.44 4834180.93 109.88 34
630739.99 4834181.42 109.82 24
630740.92 4834182.37 109.85 16
630740.16 4834180.35 109.83 26
630741.19 4834181.99 109.84 26
630741.35 4834180.91 109.85 29
630740.03 4834182.12 109.84 21
630739.91 4834181.96 109.82 19
630757.6 4834195.69 117.35 5
630757.51 4834194.39 117.36 5
630757.43 4834194.92 117.36 5
630757.8 4834194.95 117.35 5
630757.89 4834195.56 117.36 1
630757.72 4834195.48 117.33 5
630757.95 4834194.74 117.36 6
630757.88 4834194.43 117.33 5
630757.71 4834196.04 117.36 2
630757.78 4834195.21 117.35 6
630757.64 4834196.01 117.33 5
630757.35 4834195.46 117.35 5
630757.59 4834193.86 117.36 5
