1547
630638.96 4834209.03 115.57 0
630663.33 4834166.94 131.66 12
630663.55 4834166.92 131.38 12
630663.58 4834166.94 133.49 10
630662.45 4834166.77 132.83 0
630633.56 4834208.1 138.27 2
630632.99 4834207.39 138.99 1
630633.92 4834208.06 139.26 9
630645.59 4834193.73 164.62 0
630644.52 4834193.31 162.95 0
630646.09 4834195.15 163.66 0
630645.2 4834194.73 163.06 0
630644.11 4834193.7 162.81 0
630644.37 4834193.73 162.87 0
630645.75 4834193.28 164.57 0
630646.21 4834194.84 164.33 0
630644.78 4834195.02 162.95 0
630645.37 4834194.28 162.93 0
630644.94 4834194.59 162.97 0
630644.25 4834193.33 163.16 0
630645.48 4834194.01 163.81 0
630655.66 4834158.35 150.13 1
630655.73 4834158.68 150.17 0
630655.82 4834157.91 150.1 0
630657.19 4834158.83 150.12 0
630657.28 4834157.43 150.07 0
630657.42 4834157.33 150.04 1
630657.34 4834157.83 150.07 1
630656.78 4834158.82 150.12 1
630655.34 4834159.21 150.11 1
630655.57 4834159.12 150.11 1
630656.06 4834158.28 150.08 1
630655.98 4834158.76 150.16 1
630656.95 4834158.36 150.08 0
630655.74 4834158.02 150.09 1
630657.07 4834157.51 150.08 0
630656.91 4834157.95 150.09 1
630656.07 4834157.75 150.1 0
630656.43 4834159.26 150.09 1
630657.54 4834158.97 150.12 1
630655.5 4834158.79 150.16 0
630655.58 4834159.03 150.1 1
630655.9 4834159.27 150.08 1
630656.23 4834157.29 150.1 1
630657.11 4834159.33 150.12 1
630655.9 4834158.21 150.11 0
630655.66 4834158.5 150.17 0
630656.14 4834157.78 150.08 1
630657.12 4834157.9 150.09 1
630656.75 4834158.38 150.09 0
630656.62 4834159.28 150.13 0
630657.27 4834158.33 150.08 1
630655.98 4834157.47 150.08 0
630656.21 4834157.28 150.07 1
630655.81 4834157.51 150.08 1
630656.59 4834158.84 150.16 1
630639.41 4834169.39 145.95 0
630637.43 4834170.36 144.85 21
630639.16 4834169.12 144.79 0
630637.59 4834168.49 144.86 15
630639.24 4834168.61 144.77 3
630637.89 4834168.75 144.84 18
630637.74 4834170.27 144.8 20
630637.81 4834169.26 144.83 15
630639.18 4834168.84 145.88 0
630639.35 4834168.83 145.97 3
630637.52 4834169 144.86 19
630639.49 4834168.88 145.96 3
630639.19 4834169.28 145.98 3
630637.36 4834170.02 144.88 15
630639.1 4834169.47 144.81 2
630639.1 4834169.34 145.92 0
630637.44 4834169.51 144.86 18
630637.76 4834169.46 144.84 19
630637.73 4834169.76 144.85 15
630637.65 4834170.28 144.83 15
630639.36 4834169.48 145.1 0
630637.6 4834169.91 144.85 16
630638.07 4834169.35 144.77 18
630637.93 4834169.01 144.82 15
630638.09 4834168.56 144.83 16
630639.46 4834169.22 145.98 3
630637.9 4834169.81 144.78 20
630646.26 4834168.82 144.74 16
630645.72 4834168.56 144.73 16
630644.38 4834168.48 144.7 19
630645.77 4834169.8 144.74 15
630645.93 4834168.78 144.73 15
630644.41 4834169.13 144.71 19
630644.24 4834170.48 144.68 16
630644.14 4834168.79 144.68 16
630644.25 4834169.59 144.71 19
630645.51 4834169.82 144.73 18
630644.39 4834169.47 144.68 15
630645.05 4834170.39 144.71 18
630645.69 4834170.32 144.74 16
630644.55 4834168.46 144.7 16
630646 4834168.45 144.74 19
630644.08 4834170.04 144.71 18
630646.2 4834170.38 144.74 18
630645.55 4834169.02 144.73 18
630646.1 4834169.82 144.73 16
630644.21 4834168.94 144.71 16
630645.34 4834170.27 144.73 16
630646.18 4834169.32 144.73 14
630644.58 4834168.67 144.73 19
630644.32 4834169.98 144.67 16
630645.38 4834169.48 144.72 19
630645.85 4834169.29 144.73 15
630644.47 4834168.96 144.68 15
630645.68 4834169.36 144.73 18
630645.84 4834168.9 144.74 19
630645.22 4834169.93 144.71 18
630646.02 4834170.32 144.75 15
630645.56 4834178.67 143.38 0
630630.89 4834208.79 132.91 6
630631.26 4834208.79 133.38 7
630643.09 4834172.8 144.71 19
630642.89 4834172.56 144.7 18
630643.67 4834171.88 144.68 15
630643.58 4834171.43 144.7 18
630642.42 4834170.93 144.69 15
630644 4834171.99 144.67 15
630642.3 4834171.36 144.7 18
630641.82 4834172.69 144.7 15
630643.39 4834171.19 144.7 18
630642.23 4834170.85 144.69 15
630641.9 4834171.76 144.7 19
630642.35 4834171.43 144.68 16
630643.75 4834170.96 144.7 19
630643.42 4834171.89 144.71 19
630641.9 4834172.17 144.7 16
630643.59 4834172.4 144.69 16
630642.19 4834172.43 144.68 15
630643.83 4834170.85 144.66 15
630641.97 4834172.27 144.71 19
630643.92 4834172.49 144.67 16
630642.47 4834170.9 144.69 18
630643.22 4834171.65 144.7 18
630642.27 4834171.93 144.69 15
630643.75 4834171.36 144.68 16
630642.07 4834171.3 144.68 15
630641.98 4834171.65 144.7 19
630642.06 4834171.14 144.68 15
630643.25 4834172.34 144.71 19
630642.14 4834171.82 144.71 19
630643.06 4834172.1 144.7 18
630643.56 4834170.74 144.69 18
630665.26 4834174.33 93.65 5
630666.27 4834174.54 93.63 6
630666.35 4834173.98 93.62 6
630665.08 4834174.84 93.69 11
630665.62 4834173.34 93.63 6
630665.16 4834173.79 93.64 9
630666.35 4834174.45 93.66 7
630664.8 4834174.79 93.67 11
630666.18 4834174.3 93.63 7
630666.44 4834173.42 93.61 5
630666.54 4834173.31 93.63 5
630664.98 4834174.29 93.65 6
630666.36 4834173.81 93.63 7
630665.34 4834173.3 93.62 10
630666.53 4834173.95 93.64 7
630664.33 4834173.19 93.66 20
630666.17 4834174.96 93.66 7
630666.19 4834175.09 93.65 6
630665.44 4834173.83 93.62 5
630666 4834174.8 93.65 7
630658.16 4834165.09 136.63 12
630657.88 4834165.16 135.84 12
630659.03 4834165.39 136.78 7
630659.11 4834165.22 138.01 78
630659.25 4834165.38 137.37 15
630657.91 4834165.16 137.79 11
630668.99 4834150.29 128 5
630637.23 4834154.36 141.53 6
630636.86 4834154.72 141.55 6
630637.06 4834154.82 141.52 6
630637.19 4834153.82 141.54 6
630637.03 4834154.27 141.55 6
630636.7 4834154.66 140.54 6
630667.88 4834163.52 115.4 24
630668.46 4834162.64 115.41 25
630668.81 4834161.68 115.43 24
630667.72 4834163.63 115.4 24
630667.38 4834162.03 115.42 0
630668.39 4834162.1 115.43 23
630666.85 4834163.5 115.47 1
630667.03 4834163 115.4 0
630668.22 4834162.58 115.43 24
630668.29 4834163.12 115.39 24
630668.05 4834163.05 115.42 24
630668.64 4834162.16 115.42 25
630667.8 4834163.09 115.4 7
630668.11 4834163.61 115.4 24
630668.43 4834159.12 115.37 3
630668.46 4834158.45 115.51 3
630668.6 4834158.66 115.44 21
630668.81 4834157.48 115.41 9
630668.29 4834158.89 115.37 0
630650.29 4834166.28 141.52 18
630649.73 4834167.81 141.06 16
630649.65 4834168.3 141.12 28
630649.81 4834167.61 141.28 7
630649.35 4834168.13 141.08 5
630649.34 4834168.19 141.05 27
630649.96 4834167.19 141.45 10
630649.89 4834166.8 141.04 20
630649.81 4834167.31 141.02 18
630649.65 4834168.04 141.11 30
630649.97 4834166.29 141.05 5
630649.51 4834167.72 141.02 30
630649.84 4834166.82 141.06 30
630649.67 4834167.27 141.03 30
630650.13 4834166.73 141.49 14
630649.43 4834167.63 141 0
630650 4834166.37 141.06 30
630668.92 4834155.14 130.74 6
630650.81 4834164.83 141.22 29
630650.33 4834165.47 141.06 29
630650.81 4834164.15 141.21 36
630650.49 4834165.03 141.11 34
630650.46 4834165.82 141.53 20
630650.65 4834164.59 141.16 32
630650.16 4834165.92 141.06 27
630650.62 4834165.36 141.54 20
630650.05 4834165.78 141.07 0
630655.41 4834164.32 111.27 12
630656.39 4834164.7 113.07 10
630656.64 4834164.74 112.28 10
630643.41 4834202.65 166.8 0
630643.25 4834203.07 166.75 0
630639.05 4834170.31 144.74 19
630638.4 4834168.43 144.75 16
630638.78 4834170.36 144.73 19
630639.22 4834169.85 144.73 16
630639.08 4834169.67 144.66 5
630638.23 4834168.89 144.75 18
630639.32 4834170.22 144.7 15
630639.01 4834170.17 144.73 16
630639.4 4834169.72 144.68 7
630638.94 4834169.9 144.71 19
630647.88 4834169.03 144.76 18
630646.69 4834169.01 144.72 18
630646.36 4834169.92 144.73 18
630646.53 4834169.47 144.73 16
630646.44 4834170.38 144.76 18
630646.78 4834169.45 144.73 19
630647.64 4834170.26 144.75 12
630647.72 4834169.76 144.76 14
630646.86 4834168.57 144.73 18
630646.94 4834169 144.73 18
630647.11 4834168.54 144.74 20
630646.61 4834169.92 144.74 19
630647.8 4834169.26 144.75 15
630647.88 4834168.75 144.75 16
630647.49 4834169.11 144.76 14
630668.91 4834184.28 93.63 9
630669.98 4834185.72 93.64 15
630669.67 4834184.64 93.64 7
630669.31 4834185.63 93.66 10
630669.96 4834184.74 93.66 0
630669.53 4834186.35 93.67 7
630669.78 4834185.25 93.67 1
630670.14 4834184.62 93.63 6
630669.85 4834184.15 93.64 7
630669.13 4834186.13 93.64 10
630669.49 4834185.14 93.64 7
630670.06 4834185.18 93.62 9
630669.6 4834185.75 93.67 3
630669.7 4834185.23 93.66 9
630669.89 4834186.26 93.67 20
630669.62 4834185.79 93.66 10
630669.42 4834186.25 93.68 5
630669.78 4834184.68 93.65 6
630645.89 4834180.27 141.55 15
630646.14 4834180.6 141.56 5
630646.04 4834181.2 141.54 3
630645.82 4834181.5 141.54 18
630645.65 4834181.82 141.55 12
630645.96 4834179.75 141.53 19
630646.27 4834179.69 141.53 3
630645.98 4834181.04 141.53 18
630646.11 4834180.7 141.53 9
630645.17 4834180.44 141.06 12
630646.18 4834180.42 140.7 9
630645.33 4834179.99 141.08 12
630645 4834180.9 141.08 15
630644.84 4834181.36 141.08 15
630645.81 4834180.79 141.53 16
630645.73 4834181.31 141.53 15
630645.96 4834181.7 141.53 0
630644.67 4834181.82 141.07 11
630658.25 4834163.57 145.87 14
630658.84 4834163.58 145.81 9
630659.78 4834163.73 146.9 0
630659.77 4834163.69 144.87 16
630658.55 4834163.85 146.45 2
630658.98 4834163.19 146.12 0
630658.64 4834163.47 145.91 1
630657.73 4834163.08 145.86 18
630658.63 4834163.48 145.87 1
630655.28 4834164.31 119.65 12
630654.45 4834164 118.82 9
630654.23 4834163.98 118.05 9
630634.45 4834193.36 151.47 1
630635.04 4834194.33 149.92 0
630633.24 4834193.49 150.46 0
630633.85 4834194.12 151.24 1
630634.29 4834193.81 151.51 1
630634 4834193.72 151.51 1
630634.13 4834194.24 151.44 1
630634.17 4834193.28 151.5 1
630663.97 4834148.46 137.52 20
630662.23 4834149.78 138 15
630662.38 4834148.88 137.44 19
630664.02 4834149.12 137.42 16
630663.94 4834149.63 137.43 11
630664.26 4834148.23 137.79 6
630664.09 4834148.6 137.45 19
630662.75 4834149.21 137.49 18
630664.12 4834148.6 137.46 14
630662.9 4834148.19 137.45 18
630662.67 4834149.62 137.94 10
630662.3 4834149.39 137.44 14
630662.46 4834148.37 137.43 16
630662.82 4834148.71 137.42 15
630673.16 4834152.71 115.57 36
630673.22 4834153.15 115.53 33
630653.73 4834150.21 144.79 20
630654.38 4834148.43 144.79 3
630655.17 4834149.48 144.83 29
630653.27 4834148.36 144.81 19
630654.25 4834148.27 145.02 0
630653.48 4834150.37 144.77 19
630655.15 4834149.06 144.79 16
630653.1 4834148.81 144.83 30
630653.8 4834149.01 144.79 24
630653.64 4834149.94 144.77 19
630654.03 4834150.2 144.77 16
630654.11 4834148.64 144.78 18
630653.72 4834149.52 144.77 16
630654.21 4834148.87 144.79 19
630653.89 4834149.76 144.77 19
630655.3 4834148.64 144.84 2
630653.8 4834149.5 144.77 18
630654.27 4834148.7 144.78 16
630654.19 4834149.19 144.79 24
630655.01 4834149.92 144.79 20
630654.11 4834149.7 144.77 16
630653.13 4834148.21 144.8 16
630654.85 4834150.37 144.78 18
630654.83 4834149.92 144.79 19
630654.45 4834148.27 145.89 6
630653.95 4834149.08 144.82 28
630654.05 4834149.32 144.78 28
630653.88 4834148.51 144.78 12
630654.68 4834150.35 144.78 18
630674.97 4834172.42 93.65 23
630673.43 4834171.54 93.89 10
630675.31 4834172.7 93.67 7
630673.43 4834171.75 93.7 6
630673.64 4834172.65 93.62 7
630675.39 4834172.1 93.86 7
630673.72 4834172.1 93.62 7
630673.81 4834171.51 93.81 3
630673.35 4834172.09 93.88 14
630638.05 4834186.05 149.1 0
630638.34 4834185.92 149.06 0
630638.07 4834186.03 149.05 0
630638.41 4834185.92 149.07 0
630637.39 4834184.33 148.91 0
630667.55 4834168.04 94.65 14
630667.28 4834168.01 94.47 23
630667.14 4834168.34 93.7 16
630667.41 4834168.38 93.89 11
630648.11 4834167.24 144.76 15
630646.66 4834166.63 144.76 16
630647.27 4834168.09 144.76 18
630646.41 4834167.8 144.76 15
630646.49 4834167.3 144.76 14
630647.34 4834167.24 144.75 18
630647.44 4834167.63 144.76 19
630647.18 4834167.68 144.75 18
630648.03 4834167.75 144.76 15
630646.38 4834166.75 144.75 15
630647.02 4834168.12 144.74 16
630646.33 4834168.31 144.74 15
630646.57 4834166.8 144.75 6
630646.33 4834167.54 144.76 19
630646.5 4834167.09 144.76 18
630647.95 4834168.25 144.74 16
630647.6 4834167.17 144.76 18
630647.81 4834167.05 144.76 1
630648.27 4834166.23 144.76 14
630646.32 4834166.19 144.75 12
630648.19 4834166.73 144.76 15
630632.75 4834173.48 144.91 25
630631.47 4834174.87 145.83 2
630632.71 4834174.4 144.9 28
630631.73 4834175.05 145.89 3
630632.25 4834174.84 144.91 32
630632.54 4834174.85 144.91 29
630631.81 4834174.54 145.92 3
630631.54 4834174.63 144.84 2
630632.04 4834173.06 145.91 3
630631.96 4834173.55 145.93 3
630631.89 4834174.05 145.94 3
630632.58 4834173.93 144.92 32
630643.14 4834195.29 118.5 1
630627.11 4834206.18 126.97 66
630626.62 4834206.41 126.89 3
630627.89 4834206.47 126.99 61
630628.23 4834206.39 126.96 0
630657.96 4834165.15 124.64 10
630657.74 4834165.12 125.62 11
630659.8 4834165.81 124.71 11
630659.04 4834165.48 125.54 1
630658.88 4834165.36 126.69 10
630644.39 4834180.76 145.09 28
630644.76 4834180.98 145.91 6
630645.08 4834180.09 145.93 6
630644.24 4834181.76 145.09 3
630644.08 4834180.17 144.88 30
630644.24 4834179.72 144.9 30
630644.13 4834180.54 144.98 27
630644.21 4834180.04 144.95 29
630644.47 4834180.26 145.09 29
630644.59 4834181.43 145.91 6
630644.43 4834181.88 145.9 6
630644.55 4834179.77 145.06 28
630644.92 4834180.53 145.9 6
630644.31 4834181.26 145.08 19
630636.87 4834150.97 129.87 0
630637 4834150.63 130.34 1
630636.48 4834152.1 130.8 7
630636.31 4834152.55 130.79 7
630637.16 4834150.9 130.78 6
630636.68 4834152.08 130.79 7
630636.51 4834152.55 130.82 7
630637.02 4834151.16 130.8 6
630636.64 4834151.65 130.8 7
630636.92 4834152.58 130.23 11
630636.85 4834151.62 130.8 9
630637.19 4834150.69 130.8 7
630637 4834151.96 130.66 5
630637.08 4834151.42 130.79 7
630638.29 4834147.12 130.8 7
630638.89 4834145.99 130.76 6
630638.46 4834146.67 130.79 6
630638.15 4834147.1 130.78 5
630638.62 4834146.22 130.79 7
630638.2 4834147.88 130.78 6
630638.24 4834146.58 130.78 6
630638.07 4834147.65 130.66 5
630638.54 4834146.94 130.78 7
630638.13 4834147.55 130.74 6
630638.37 4834147.41 130.79 6
630638.72 4834146.47 130.77 7
630638.32 4834146.06 130.79 6
630637.99 4834148.14 130.75 6
630637.97 4834148 130.74 5
630630.24 4834207.61 126.66 3
630629.75 4834207.88 126.71 3
630629.91 4834207.42 126.72 6
630629.61 4834208.24 126 14
630646.75 4834151.96 144.68 15
630647.14 4834151.79 144.64 15
630647.84 4834152.43 144.7 18
630648.4 4834151.37 144.7 18
630648.15 4834151.56 144.68 16
630647.26 4834151.17 144.69 18
630647.22 4834151.27 144.66 16
630646.7 4834151.95 144.67 16
630646.62 4834152.45 144.67 16
630648.07 4834152.29 144.75 3
630646.59 4834152.39 144.66 15
630648.31 4834151.13 144.7 20
630646.85 4834150.94 144.7 15
630648.49 4834151.9 144.69 15
630648 4834152 144.69 15
630646.91 4834151.52 144.68 18
630647.07 4834152.29 144.66 16
630646.77 4834151.44 144.68 15
630646.77 4834152.52 144.67 16
630648.41 4834152.4 144.69 15
630647.06 4834151.09 144.69 18
630647.42 4834150.73 144.75 25
630648.24 4834151.83 144.7 19
630647.3 4834150.76 144.69 19
630646.93 4834152.07 144.67 15
630647.09 4834151.62 144.69 18
630638.14 4834190.56 153.41 0
630638.28 4834190.16 153.72 0
630647.26 4834170.64 144.8 16
630648.04 4834168.58 144.77 18
630647.41 4834169.62 144.77 15
630647.7 4834170.14 144.79 12
630647.34 4834170.13 144.79 14
630647.57 4834168.59 144.78 16
630647.71 4834169.49 144.77 15
630647.87 4834169.68 144.78 15
630648.04 4834169.22 144.77 16
630647.55 4834169.94 144.78 18
630647.38 4834170.39 144.77 16
630647.54 4834170.59 144.78 14
630648.2 4834168.77 144.79 18
630621.94 4834194.5 115.53 33
630622.1 4834195.06 115.59 30
630622.7 4834193.62 116.69 2
630622.27 4834194.58 115.57 10
630636.48 4834197.26 144.74 10
630636.92 4834195.86 144.76 7
630636.77 4834196.8 144.74 14
630636.71 4834195.78 144.76 6
630635.11 4834197.24 144.74 14
630635.13 4834195.64 144.75 25
630636.85 4834196.33 144.74 12
630636.7 4834197.27 144.74 15
630656.93 4834176.62 93.72 0
630655.77 4834175.58 93.76 24
630656.75 4834177.12 93.7 10
630656.45 4834177.07 93.78 34
630655.53 4834176.96 93.77 33
630655.71 4834176.45 93.75 36
630655.59 4834176.08 93.78 28
630656.63 4834176.57 93.72 33
630655.89 4834175.95 93.76 33
630656.07 4834175.46 93.78 36
630657.11 4834176.13 93.77 1
630656.99 4834175.59 93.76 30
630657.29 4834175.64 93.8 27
630656.81 4834176.09 93.74 29
630655.41 4834176.57 93.79 28
630621.4 4834199.59 130.84 28
630621.48 4834199.1 130.83 21
630621.55 4834198.61 130.8 7
630616.9 4834201.08 115.54 27
630615.94 4834202.08 115.94 3
630616.5 4834202.09 115.62 30
630617.05 4834200.08 115.54 18
630616.84 4834202.05 115.57 29
630615.75 4834201.53 115.98 2
630616.28 4834201.14 115.87 6
630616.09 4834200.59 115.97 6
630616.45 4834200.69 115.95 6
630617.01 4834201.57 115.52 29
630616.62 4834200.22 115.98 6
630616.82 4834199.91 115.98 2
630616.82 4834201.57 115.57 25
630616.97 4834200.59 115.52 24
630616.74 4834200.44 115.94 2
630616.11 4834201.62 115.95 3
630616.74 4834202.06 115.59 25
630615.57 4834202 115.96 1
630616.58 4834201.58 115.61 29
630615.92 4834201.06 115.98 3
630616.65 4834201.09 115.53 24
630633.1 4834168.58 141.01 23
630633.16 4834169.17 141.01 14
630632.93 4834169.03 141.05 24
630632.99 4834169.63 141.03 15
630633.32 4834168.71 141.01 12
630632.82 4834170.09 141.03 15
630632.85 4834168.73 141.09 24
630656.89 4834183.85 93.7 29
630656.09 4834182.84 93.71 28
630655.37 4834183.26 93.67 29
630655.32 4834184.04 93.68 24
630655.74 4834183.81 93.67 29
630656.59 4834183.95 93.68 27
630656.76 4834183.47 93.69 27
630655.91 4834183.33 93.72 24
630655.46 4834182.7 93.7 27
630655.86 4834182.57 93.75 30
630657.12 4834182.47 93.67 29
630655.54 4834182.13 93.76 29
630656.68 4834183.38 93.68 23
630657.04 4834183.22 93.67 24
630657.22 4834182.11 93.67 29
630657.06 4834183.36 93.7 28
630655.68 4834183.05 93.7 25
630657.13 4834182.67 93.67 29
630656.04 4834182.07 93.74 29
630656.27 4834182.34 93.7 29
630656.58 4834183.97 93.7 29
630657.42 4834182.36 93.69 33
630656.96 4834183.77 93.68 23
630656.76 4834182.83 93.68 25
630657.24 4834182.86 93.69 32
630657.3 4834181.98 93.7 30
630656.94 4834182.97 93.69 25
630656.85 4834182.27 93.67 30
630655.5 4834183.54 93.68 27
630640.67 4834201.85 160.95 0
630640.42 4834202.11 160.92 0
630640.49 4834201.68 160.85 0
630657.96 4834206.7 85.73 42
630657.78 4834207.18 85.62 19
630659.2 4834206.69 85.79 41
630658.11 4834207.26 85.45 5
630658.27 4834206.81 85.76 39
630659.28 4834207.46 85.69 34
630658.34 4834207.21 85.72 29
630658.68 4834206.83 85.74 33
630659.02 4834207.18 85.77 45
630659.45 4834206.98 85.81 47
630658.59 4834207.4 85.65 7
630658.84 4834207.65 85.6 21
630653.7 4834191.61 96.14 24
630653.79 4834191.05 96.13 20
630653.88 4834192.48 96.13 21
630653.13 4834191.15 96.15 33
630653.94 4834191.33 96.15 33
630654.09 4834191.69 96.17 32
630653.74 4834192.67 96.16 24
630653.4 4834192.81 96.15 20
630653.58 4834192.31 96.14 14
630653.92 4834192.18 96.17 32
630653.76 4834191.82 96.14 29
630654.27 4834191.2 96.18 36
630653.96 4834191.93 96.14 27
630654.05 4834191.39 96.14 23
630653.62 4834192.18 96.13 12
630653.53 4834192.73 96.16 9
630640.1 4834166.73 144.67 7
630641.21 4834166.23 144.73 18
630641.22 4834167.11 144.7 10
630641.77 4834166.36 144.74 19
630641.6 4834166.82 144.71 18
630640.26 4834166.3 144.73 18
630640.54 4834166.2 144.74 18
630641.36 4834167.28 144.73 9
630641.05 4834167.25 144.75 3
630639.86 4834166.7 144.71 15
630641.55 4834166.22 144.74 19
630641.52 4834166.27 144.73 18
630641.39 4834166.66 144.73 18
630640.37 4834166.65 144.72 19
630641.44 4834167.26 144.67 0
630641.13 4834166.74 144.72 16
630639.94 4834166.21 144.71 18
630641.44 4834166.78 144.69 15
630621.19 4834191 115.46 28
630621.4 4834191.57 115.41 24
630620.17 4834190.93 115.5 32
630620.28 4834192.61 115.49 25
630621.48 4834191.04 115.42 25
630621.3 4834193.03 115.45 27
630621.32 4834192.11 115.43 25
630619.85 4834192.98 115.51 28
630620.01 4834191.96 115.51 29
630621.56 4834192.14 115.42 23
630620.63 4834191.65 115.48 32
630620.5 4834192.89 115.47 29
630620.84 4834191.95 115.46 27
630621.24 4834192.64 115.43 24
630620.46 4834192.13 115.48 32
630619.93 4834192.47 115.5 28
630620.81 4834191.18 115.46 30
630620.11 4834193.08 115.5 36
630621.02 4834191.47 115.45 28
630620.67 4834192.42 115.49 30
630621.48 4834192.56 115.44 27
630619.86 4834191.18 115.51 21
630621.48 4834192.66 115.41 23
630645.73 4834160.86 144.76 11
630645.31 4834161.09 144.76 12
630644.59 4834161.35 144.76 18
630645.65 4834161.37 144.75 12
630645.23 4834161.6 144.75 15
630644.72 4834161.55 144.75 15
630645.66 4834161.43 144.76 14
630643.56 4834186.83 141.16 16
630643.94 4834187.56 141.53 2
630643.5 4834187.85 141.42 3
630643.14 4834187.79 141.15 2
630643.06 4834188.3 141.16 1
630643.41 4834187.81 141.18 2
630643.49 4834187.32 141.18 6
630643.67 4834187.39 141.42 1
630643.21 4834187.29 141.14 2
630643.34 4834188.26 141.35 1
630643.83 4834186.94 141.46 0
630644 4834186.49 141.46 0
630648.39 4834148.04 144.77 36
630648.47 4834147.24 144.88 38
630647.46 4834147.08 144.91 45
630647.54 4834146.36 144.79 6
630647.85 4834147.2 144.85 30
630647.3 4834147.51 144.84 37
630648.32 4834147.65 144.82 36
630647.39 4834147.35 144.86 30
630647.2 4834147.26 144.89 38
630648.55 4834147.6 144.82 36
630648.01 4834145.96 145.89 5
630647.6 4834146.22 145.84 1
630647.05 4834147.67 144.82 37
630647.47 4834146.83 144.96 33
630647.86 4834146.01 145.91 6
630647.14 4834147.95 144.78 34
630647.53 4834146.36 144.77 18
630647.35 4834146.85 144.98 39
630647.63 4834146.61 144.81 24
630647.77 4834147.72 144.77 30
630646.51 4834146.02 144.79 23
630647.55 4834146.12 145.87 1
630647.93 4834146.69 144.85 30
630646.33 4834146.53 145.04 41
630646.35 4834145.91 144.79 21
630647.78 4834146.18 144.87 1
630647.31 4834147.87 144.78 30
630632.69 4834166.9 141.54 0
630632.52 4834167.36 141.54 0
630632.6 4834168.29 141.52 6
630632.36 4834167.81 141.53 0
630632.76 4834167.24 141.53 5
630632.68 4834167.76 141.53 5
630672.02 4834159.67 115.95 3
630671.31 4834159.79 115.56 29
630671.43 4834161.58 115.94 5
630671.5 4834161.12 115.91 5
630671.23 4834160.32 115.55 32
630671.59 4834160.53 115.84 10
630671.67 4834160.03 115.69 23
630671.51 4834161.05 115.91 5
630671.44 4834160.73 115.65 23
630671.27 4834161.2 115.63 29
630671.67 4834160.64 115.92 5
630671.61 4834160.27 115.67 24
630671.78 4834159.8 115.7 27
630671.15 4834160.85 115.58 32
630671.32 4834161.59 115.87 6
630671.75 4834159.51 115.66 28
630671.84 4834160.16 115.94 3
630671.07 4834161.38 115.59 32
630629.97 4834207.39 129.68 0
630629.2 4834207 129.99 0
630628.85 4834208 130.62 6
630628.47 4834208.05 131.11 7
630637.48 4834180.7 151.9 1
630637.35 4834181.43 152.75 1
630638.82 4834180.51 152.37 0
630637.64 4834179.73 151.88 0
630638.97 4834179.68 151.74 0
630637.32 4834179.93 152.06 0
630638.75 4834180.95 152.61 0
630637.56 4834180.11 152.28 1
630637.41 4834181.07 152.32 1
630669.64 4834187.89 93.73 30
630669.24 4834186.75 93.68 7
630669.72 4834187.35 93.71 28
630670.99 4834187.7 93.87 16
630669.19 4834188.57 93.72 30
630669.81 4834186.81 93.69 21
630669.06 4834187.25 93.68 6
630669.28 4834188.01 93.7 24
630668.95 4834186.63 93.66 9
630669.45 4834186.9 93.67 12
630668.88 4834187.75 93.68 6
630669.36 4834187.46 93.68 21
630669.55 4834188.43 93.77 29
630641.14 4834195.21 161.91 0
630641.44 4834195.3 161.67 0
630640.29 4834194.81 162.25 0
630641.28 4834194.84 162.26 0
630640.5 4834193.34 161.56 0
630639.83 4834195.19 162.14 0
630640.14 4834194.35 162.32 0
630640.64 4834193.84 161.73 0
630640.45 4834194.38 162.25 0
630641.58 4834194.9 161.87 0
630640.15 4834195.21 162.07 0
630640.23 4834194.05 160.67 0
630639.99 4834194.76 162.13 0
630639.34 4834190.72 144.81 0
630639.33 4834189.02 144.86 0
630639.42 4834190.22 144.86 0
630639.1 4834190.51 144.9 0
630639.54 4834189.5 144.93 1
630637.99 4834188.71 146.14 0
630637.73 4834188.72 146.73 0
630639.26 4834189.49 144.94 1
630639.45 4834188.93 144.84 1
630639.5 4834189.72 144.93 1
630627.36 4834205.93 137.6 30
630628.15 4834206.18 137.49 15
630626.88 4834206.14 137.53 21
630627.98 4834206.64 137.54 34
630627.05 4834205.69 137.57 1
630628.3 4834205.8 138.01 25
630627.19 4834206.37 137.57 34
630626.12 4834205.75 137.56 29
630626.72 4834206.59 137.55 33
630632.41 4834179.54 144.76 14
630632.74 4834179.33 144.74 12
630632.49 4834179.02 144.76 12
630634.58 4834175.59 144.78 16
630632.98 4834176.89 144.82 32
630634.83 4834175.21 144.77 16
630633.1 4834175.89 144.82 36
630632.94 4834176.34 144.82 34
630635.04 4834176.01 144.86 18
630634.88 4834177 144.86 16
630634.75 4834175.72 144.79 23
630633.28 4834175.83 144.79 29
630634.67 4834176.22 144.82 23
630634.96 4834176.5 144.86 18
630634.97 4834177.13 144.87 23
630634.52 4834177.23 144.86 16
630633.48 4834175.52 144.81 29
630632.96 4834175.92 144.82 32
630633.75 4834177.12 144.78 18
630633.92 4834176.67 144.78 18
630633.21 4834176.33 144.78 25
630632.88 4834176.44 144.81 30
630633.36 4834175.33 144.79 29
630634.08 4834176.96 144.78 25
630634.42 4834175.3 144.77 15
630633.05 4834177.34 144.77 18
630634.08 4834176.21 144.78 14
630633.27 4834175.44 144.81 36
630634.24 4834176.51 144.78 19
630634.25 4834175.76 144.78 15
630633.31 4834175.98 144.81 34
630634.41 4834176.05 144.78 18
630633.15 4834176.44 144.82 32
630634.6 4834176.72 144.86 19
630632.82 4834177.35 144.81 33
630633.04 4834175.41 144.82 28
630633.13 4834176.83 144.79 23
630639.08 4834188.07 156.68 0
630639.27 4834186.75 156.92 0
630639.15 4834187.05 156.21 0
630638.95 4834187.66 157.06 0
630639.54 4834186.84 157.15 0
630638.81 4834188.01 156.58 0
630639.22 4834187.71 157.12 0
630638.89 4834188.64 157.35 0
630639.38 4834187.27 157.12 0
630639.4 4834186.43 157.52 0
630651.22 4834154.23 150.05 0
630651.77 4834153.05 150.02 0
630652.28 4834153.89 150.02 0
630651.54 4834154.54 150.06 1
630651.14 4834153.9 150.06 0
630651.06 4834154.69 150.1 1
630651.96 4834154.77 150.04 0
630652.35 4834154.24 150.07 0
630651.14 4834154.73 150.07 0
630651.55 4834153.33 150.05 0
630651.61 4834154.04 150.04 1
630651.22 4834154.23 150.06 0
630652.84 4834154.38 150.05 1
630650.82 4834154.77 150.08 1
630651.69 4834153.54 150.05 1
630653 4834153.38 149.99 0
630651.46 4834153.03 150.05 0
630652.77 4834154.88 150.04 1
630652.67 4834153.35 150.06 0
630652.19 4834154.69 150.09 1
630652.44 4834153.45 150.02 0
630650.98 4834154.34 150.08 0
630651.3 4834153.46 150.04 0
630651.38 4834153.78 150.06 1
630652.51 4834153.79 150.07 0
630651.29 4834153.72 150.05 1
630652.92 4834153.87 150.05 1
630651.37 4834153.22 150.04 1
630652.12 4834154.33 150.03 1
630649.96 4834188.55 93.81 20
630650.41 4834188.1 93.86 21
630649.55 4834188.37 93.93 24
630649.05 4834188.61 94 0
630650.57 4834187.67 93.86 19
630650.32 4834187.57 93.83 19
630650.68 4834186.57 93.81 19
630649.81 4834186.74 93.93 5
630650.5 4834187.07 93.82 18
630649.76 4834186.63 94 2
630650.24 4834188.56 93.86 16
630650.14 4834188.06 93.81 24
630649.4 4834187.62 94 1
630649.64 4834187.82 93.96 32
630650.72 4834187.24 93.86 15
630649.2 4834188.5 93.94 1
630649.72 4834187.29 93.91 15
630649.23 4834188.11 93.98 0
630645.78 4834161.75 144.76 16
630644.92 4834163.67 144.71 14
630644.1 4834162.68 144.73 18
630644.27 4834162.24 144.76 18
630645.01 4834163.23 144.74 15
630644.38 4834162.47 144.76 18
630645.42 4834162.9 144.73 15
630645.5 4834161.88 144.75 15
630645.17 4834162.78 144.75 18
630645 4834163.15 144.73 16
630644.84 4834163.68 144.72 18
630645.61 4834162.21 144.75 15
630645.28 4834163.12 144.74 16
630644.22 4834162.92 144.74 18
630645.45 4834162.66 144.75 15
630645.34 4834162.33 144.75 15
630644.55 4834162.02 144.76 19
630645.07 4834162.63 144.75 16
630645.49 4834162.38 144.75 14
630646.18 4834163.54 144.74 16
630645.34 4834163.41 144.72 16
630645.15 4834162.11 144.75 14
630645.57 4834161.88 144.73 14
630644.43 4834161.79 144.76 18
630645.12 4834163.57 144.7 18
630632.59 4834191.71 144.87 21
630630.69 4834192.47 144.84 2
630632.73 4834191.36 144.82 24
630632.17 4834191.96 144.91 10
630632.51 4834192.18 144.9 15
630631.02 4834192.51 144.83 27
630631.03 4834191.63 145.2 1
630632.35 4834191.47 144.86 15
630632.48 4834191.12 145.25 1
630630.61 4834192.96 144.8 5
630632.27 4834191.96 144.92 9
630631.84 4834192.85 144.83 18
630632 4834192.4 144.86 32
630632.24 4834192.71 144.87 16
630631.34 4834191.61 144.84 23
630630.87 4834192.05 145 2
630631.21 4834191.12 144.84 7
630632.56 4834191.82 144.9 24
630632.44 4834191.27 146.07 0
630632.44 4834192.69 144.83 25
630632.2 4834192.47 144.85 25
630630.63 4834191.17 144.85 18
630631.51 4834191.16 144.85 29
630630.76 4834192.01 144.77 10
630632.12 4834192.97 144.84 7
630630.84 4834191.54 144.77 16
630630.86 4834192.96 144.81 32
630632.4 4834192.27 144.91 30
630631.18 4834192.06 144.81 29
630632.33 4834191.5 144.83 25
630630.7 4834192.52 145.14 2
630632.66 4834191.24 144.86 2
630630.91 4834191.04 144.81 23
630648.75 4834160.44 150 6
630649.1 4834159.9 150.05 6
630650.21 4834159.56 149.81 6
630649.02 4834160.4 150.07 5
630649.73 4834161.5 149.78 6
630649.17 4834159.41 150.01 6
630649.89 4834161.04 149.76 6
630650.76 4834159.65 149.65 5
630648.86 4834161.41 150.04 5
630650.29 4834160.36 149.72 6
630650.37 4834159.85 149.74 5
630650.22 4834160.87 149.71 5
630648.59 4834160.89 150 6
630650.14 4834161.39 149.67 5
630648.63 4834160.68 149.99 6
630648.77 4834161.01 150.08 6
630650.22 4834160.12 149.77 6
630650.52 4834161.17 149.58 5
630648.94 4834160.9 150.08 6
630648.93 4834160.56 150.1 6
630650.8 4834161.21 149.49 6
630648.61 4834161.46 150.07 6
630649.74 4834160.86 149.82 6
630648.78 4834159.68 149.94 6
630649.26 4834159.66 150.11 6
630650.6 4834160.67 149.59 5
630650.68 4834160.16 149.62 5
630650.06 4834160.58 149.75 7
630649.58 4834161.3 149.84 6
630649.9 4834160.42 149.82 6
630648.71 4834160.18 149.97 5
630650.06 4834159.99 149.82 6
630650.39 4834159.66 149.77 6
630648.91 4834160 150 6
630649.07 4834159.56 150.01 6
630649.1 4834160.11 150.11 6
630663.64 4834178.84 93.7 16
630663.17 4834179.28 93.69 10
630662.18 4834178.28 93.72 20
630664.01 4834178.73 93.66 6
630663.72 4834177.78 93.68 10
630663.54 4834178.28 93.69 12
630662.18 4834179.16 93.69 9
630664.22 4834179.54 93.66 6
630663.99 4834177.85 93.71 14
630664.31 4834178.98 93.67 6
630663.36 4834178.78 93.69 12
630663.46 4834179.33 93.7 11
630662.36 4834177.78 93.72 24
630663.82 4834178.35 93.71 16
630662.36 4834178.66 93.72 15
630663.93 4834179.29 93.67 7
630662.29 4834179.61 93.7 7
630662.67 4834179.44 93.63 1
630664.1 4834178.17 93.67 0
630662.72 4834177.67 93.71 14
630662.54 4834178.17 93.72 20
630665.24 4834169.86 93.66 21
630665.6 4834169.68 93.65 9
630665.95 4834168.71 93.82 15
630664.32 4834169.6 93.69 33
630666.52 4834170.13 95.08 5
630665.41 4834169.37 93.7 25
630665.42 4834170.18 93.64 7
630664.5 4834169.1 93.72 33
630664.47 4834168.49 93.79 30
630665.06 4834170.36 93.63 6
630665.59 4834168.89 93.8 21
630666.4 4834170.42 94.12 0
630665.78 4834169.19 93.69 21
630664.68 4834168.62 93.82 25
630636.44 4834141.11 115.54 21
630636.7 4834141 115.55 29
630637.01 4834140.15 115.97 3
630636.74 4834140.28 115.93 7
630635.68 4834139.98 115.99 1
630635.95 4834140.41 115.91 3
630635.47 4834141.07 115.96 6
630635.99 4834139.65 115.99 1
630635.64 4834140.59 115.96 5
630635.17 4834141.37 116 0
630636.43 4834140.09 115.94 5
630636.35 4834140.67 115.66 29
630635.87 4834140.99 115.63 6
630636.26 4834141.23 115.52 18
630635.51 4834140.44 115.98 1
630635.34 4834140.9 115.98 0
630636.03 4834139.88 115.95 6
630635.82 4834140.12 115.96 6
630636.6 4834140.67 115.65 43
630636.86 4834140.55 115.67 33
630665.25 4834167.57 122.48 11
630665.49 4834167.57 122.66 10
630664.46 4834167.21 124.02 12
630630.97 4834198.74 144.71 19
630630.64 4834199.63 144.68 19
630631.08 4834199.86 144.68 16
630631.48 4834198.83 144.71 16
630630.94 4834199.62 144.71 18
630631.42 4834198.3 144.75 18
630632.2 4834199.32 144.75 20
630630.81 4834199.19 144.7 18
630631.15 4834199.37 144.71 18
630631.26 4834198.74 144.73 20
630632.36 4834198.87 144.76 19
630631.1 4834199.19 144.73 19
630632.04 4834198.82 144.72 18
630631.88 4834199.26 144.7 19
630631.34 4834199.75 144.69 15
630631.3 4834198.41 144.71 16
630632.52 4834198.42 144.76 18
630631.72 4834199.71 144.71 20
630631.22 4834198.89 144.71 16
630631.37 4834197.92 144.73 16
630632.04 4834199.76 144.73 19
630631.13 4834198.29 144.72 16
630632.21 4834198.37 144.74 25
630631.55 4834198.36 144.72 16
630631.41 4834199.29 144.71 15
630658.76 4834149.33 145.28 10
630657.58 4834149.19 145.88 5
630658.72 4834149.75 145.62 0
630658.47 4834150.39 144.8 20
630658.63 4834149.96 144.81 18
630657.84 4834149.21 145.92 6
630657.77 4834149.38 144.91 0
630658.68 4834149.95 144.77 2
630658.85 4834149.4 145.95 7
630657.65 4834148.93 144.8 9
630657.62 4834149.79 144.78 19
630659 4834149.46 145.93 6
630658.85 4834149.87 145.77 0
630659.7 4834150.07 144.86 2
630659.14 4834149.44 145.57 10
630659.77 4834149.91 145.92 7
630657.71 4834149.01 145.93 1
630658.69 4834149.7 145.9 2
630658.77 4834150.05 144.79 18
630648.93 4834158.68 149.91 5
630650.45 4834159.34 149.77 6
630649.39 4834158.69 150.04 3
630650.56 4834159.2 149.75 3
630649.75 4834158.29 150.1 1
630649.23 4834159.12 150.02 6
630650.76 4834157.23 150.17 1
630649.91 4834157.85 150.11 1
630649.55 4834158.27 150.11 0
630648.86 4834159.18 149.93 6
630649.25 4834158.92 149.98 6
630649.42 4834159.2 150.12 6
630650.67 4834158.31 150.06 1
630650.51 4834158.75 150.06 1
630650.7 4834158.81 150.07 1
630649.59 4834158.75 150.13 3
630649.71 4834157.84 150.13 1
630649.41 4834157.9 150.07 1
630650.08 4834157.4 150.14 1
630650.68 4834157.75 150.11 1
630650.6 4834158.25 150.11 1
630649.86 4834157.4 150.12 1
630649.49 4834157.4 150.08 1
630650.37 4834159.13 149.82 3
630649.33 4834158.4 150.05 1
630650.53 4834158.76 150.1 1
630660.08 4834165.89 144.75 14
630660.05 4834165.88 142.81 12
630660.25 4834165.92 142.93 12
630649.69 4834143.59 137.65 20
630649.92 4834143.53 137.91 7
630650.46 4834143.32 136.12 6
630650.08 4834143.1 137.99 1
630648.58 4834143.18 137.67 14
630650.38 4834143.46 137.95 6
630648.7 4834143.36 137.6 25
630648.76 4834142.68 137.41 6
630648.69 4834143.11 137.78 7
630648.71 4834142.82 137.97 9
630650 4834143.2 137.88 5
630648.83 4834143 137.95 10
630649.82 4834143.24 137.95 9
630628.15 4834207.04 137.6 29
630626.54 4834207.1 137.93 7
630627.64 4834207.61 137.96 6
630627.03 4834206.84 137.7 24
630627.98 4834207.54 137.98 6
630626.89 4834207.55 137.99 1
630626.4 4834207.44 137.13 1
630627.82 4834207.1 137.62 14
630626.85 4834207.33 137.98 6
630628.28 4834207.84 137.95 3
630648.06 4834191.44 96.1 0
630648.23 4834190.95 96.11 1
630647.67 4834163.41 149.44 5
630648.45 4834161.9 150.02 9
630648.14 4834162.74 149.7 12
630648.12 4834162.19 149.88 9
630647.01 4834163.11 149.48 3
630646.81 4834162.02 149.57 6
630646.72 4834162.93 149.5 9
630646.87 4834162.52 149.67 7
630647.16 4834162.06 149.69 6
630648.32 4834162.76 149.72 5
630648.24 4834163.32 149.53 5
630646.64 4834162.47 149.58 6
630648.27 4834161.77 150.01 6
630646.76 4834162.41 149.62 6
630647.97 4834162.59 149.73 11
630647.04 4834162.07 149.64 6
630647.82 4834163 149.58 9
630646.83 4834161.92 149.57 6
630648.55 4834163.56 149.42 2
630646.49 4834162.89 149.5 9
630647.99 4834163.16 149.55 11
630647.09 4834162.55 149.7 5
630648.48 4834161.67 150.06 5
630648.4 4834162.22 149.9 5
630646.68 4834162.95 149.5 3
630648.29 4834162.32 149.86 9
630670.91 4834155.86 115.4 33
630669.15 4834156.53 115.4 0
630670.63 4834155.95 115.41 30
630670.56 4834156.35 115.39 23
630670.29 4834156.89 115.43 28
630669.47 4834156.24 115.4 20
630669.66 4834155.14 115.51 29
630670.48 4834156.88 115.4 24
630670.73 4834155.29 115.38 29
630670.97 4834155.01 115.39 30
630670.8 4834155.48 115.4 32
630669.64 4834155.75 115.39 24
630670.55 4834156.83 115.41 29
630670.06 4834156.8 115.39 11
630670.73 4834156.35 115.4 28
630669.5 4834155.58 115.35 12
630670.46 4834156.42 115.41 25
630670.64 4834155.82 115.39 29
630669.3 4834156.72 115.39 18
630669.81 4834155.28 115.47 32
630670.14 4834156.28 115.37 1
630625.34 4834206.45 126.7 6
630624.58 4834205.91 126.67 3
630624.17 4834205.97 126.64 5
630624 4834206.45 126.72 1
630624.03 4834206.33 125.87 1
630624.43 4834206.3 126.22 7
630640.18 4834185.05 157.09 1
630639.75 4834184.23 156.11 1
630641.32 4834185.03 156.48 1
630639.91 4834185.02 157.06 1
630641.11 4834184.83 156.14 0
630639.92 4834185.73 156.02 0
630640.74 4834185.89 157.07 0
630641.77 4834186.34 157.28 0
630641.14 4834185.54 156.79 0
630641.29 4834185.5 156.03 0
630640.01 4834185.53 157.29 0
630639.99 4834184.49 156.18 0
630640.57 4834186.37 157.3 0
630639.68 4834184.74 156.05 0
630640.96 4834186.04 157.15 0
630639.84 4834186.02 157.5 0
630640.93 4834185.34 156.49 0
630639.74 4834185.5 157.25 0
630658.55 4834172.14 93.79 29
630659.46 4834172.66 93.75 29
630658.37 4834172.63 93.79 34
630659.09 4834170.65 93.75 36
630658.73 4834171.64 93.78 33
630658.25 4834172.11 93.79 30
630658.62 4834171.11 93.77 29
630658.44 4834171.6 93.78 30
630659.64 4834172.17 93.78 28
630659.69 4834172.86 93.76 27
630657.7 4834170.96 93.84 33
630658.07 4834172.61 93.79 28
630658.91 4834171.15 93.76 36
630638.45 4834184.08 155.35 0
630638.26 4834183.61 155.62 1
630638.61 4834182.98 155.86 1
630638.42 4834182.55 155.84 1
630638.34 4834183.01 155.99 1
630638.53 4834183.48 155.78 1
630640.72 4834192.87 145.89 1
630641 4834191.29 144.83 6
630640.49 4834192.77 144.95 25
630640.8 4834192.41 145.86 0
630640.64 4834191.79 144.88 7
630640.72 4834191.3 144.85 7
630640.78 4834192.67 144.97 0
630639.66 4834192.39 144.81 0
630640.56 4834192.28 144.92 12
630639.83 4834191.94 144.81 0
630640.85 4834192.22 144.91 0
630640.93 4834191.75 144.87 2
630638.43 4834175.6 145.19 1
630638.26 4834175.23 144.82 16
630639.55 4834177.06 144.78 20
630638.12 4834176.43 144.78 14
630639.36 4834175.7 144.79 7
630637.8 4834177.34 144.77 14
630638.38 4834176.2 144.98 2
630639.08 4834177.12 144.8 21
630638.1 4834175.67 144.78 15
630638.53 4834175.27 144.77 14
630638.3 4834176.74 144.84 3
630639.25 4834176.66 144.77 15
630639.04 4834176.59 144.77 18
630639.41 4834176.21 144.78 15
630637.94 4834176.12 144.78 15
630638.87 4834177.05 144.78 18
630638.46 4834175.74 144.84 3
630639.2 4834176.15 144.8 14
630638.29 4834175.98 144.79 12
630639.52 4834175.26 144.85 15
630641.66 4834183.6 144.74 0
630641.76 4834182.57 144.75 3
630647.22 4834150.67 144.77 24
630648.46 4834150.73 144.8 20
630648.55 4834150.95 144.81 20
630646.93 4834150.41 144.8 21
630664.18 4834177.35 93.7 10
630664.26 4834176.29 93.68 9
630662.9 4834176.29 93.72 29
630663.08 4834175.8 93.72 30
630663.25 4834176.19 93.73 30
630663.26 4834175.3 93.7 25
630662.54 4834177.28 93.72 27
630663.43 4834175.69 93.71 29
630663.07 4834176.69 93.72 24
630662.72 4834176.78 93.71 27
630664.08 4834176.79 93.69 7
630663.61 4834175.19 93.69 24
630662.9 4834177.18 93.71 20
630662.15 4834175.61 93.72 24
630663.9 4834177.29 93.69 12
630640.44 4834170.02 144.72 18
630640.27 4834170.48 144.72 21
630641.33 4834170.3 144.7 15
630640.07 4834170.27 144.71 18
630640.89 4834170.31 144.69 12
630640.58 4834170.34 144.7 15
630641.57 4834170.25 144.76 3
630664.8 4834156.36 144.76 10
630664.72 4834156.86 144.76 12
630673.46 4834172.84 85.61 0
630673.63 4834171.72 85.56 6
630673.54 4834172.26 85.68 1
630675.51 4834172.85 85.58 0
630674.01 4834171.7 85.55 12
630673.84 4834172.79 85.67 1
630675.16 4834172.56 85.57 2
630675.33 4834171.45 85.53 27
630674.1 4834171.14 85.58 32
630673.71 4834171.16 85.55 21
630675.25 4834172.02 85.49 12
630675.42 4834170.88 85.55 28
630673.92 4834172.24 85.63 3
630633.91 4834190.66 144.9 0
630633.06 4834190.45 144.81 6
630633.16 4834190.19 145.88 1
630634.17 4834190.69 144.83 3
630634.95 4834190.86 145.57 0
630656.15 4834204.68 85.69 32
630655.97 4834205.18 85.71 36
630657.38 4834204.76 85.71 32
630657.16 4834205.7 85.73 33
630656.84 4834206.26 85.69 37
630655.61 4834206.17 85.63 27
630657.25 4834205.16 85.72 30
630656.87 4834205.78 85.7 32
630655.87 4834206.49 85.62 10
630655.44 4834206.61 85.24 1
630657.01 4834205.76 85.73 38
630655.56 4834205.22 85.67 29
630657.08 4834206.26 85.66 29
630657.22 4834206.2 85.72 38
630656.4 4834205.01 85.74 36
630656.05 4834206 85.67 32
630656.22 4834205.51 85.72 38
630655.41 4834204.44 85.69 27
630656.58 4834204.52 85.73 32
630655.64 4834204.67 85.68 29
630656.78 4834206.36 85.65 30
630655.39 4834206.33 85.62 7
630655.79 4834205.68 85.68 37
630655.4 4834204.42 85.66 29
630657.03 4834204.66 85.7 28
630657.33 4834204.63 85.7 27
630656.95 4834205.22 85.72 29
630657.2 4834205.27 85.73 36
630655.47 4834205.78 85.62 23
630657.4 4834205.71 85.78 41
630637.73 4834173.97 144.79 18
630638.38 4834174.29 144.82 15
630638.78 4834174.62 144.85 18
630638.62 4834175.08 144.84 15
630638.42 4834174.79 144.84 19
630638.69 4834174.27 144.77 15
630637.56 4834174.43 144.86 15
630638.3 4834174.79 144.84 12
630637.46 4834173.96 144.77 18
630638.61 4834174.75 144.83 10
630637.4 4834174.87 144.82 12
630638.89 4834200.5 141.17 7
630639.22 4834200.61 141.44 2
630638.73 4834200.96 141.18 15
630639.3 4834201.25 141.52 5
630638.4 4834201.87 141.22 25
630639.06 4834200.05 141.18 10
630639.39 4834200.14 141.34 9
630639.37 4834200.76 141.52 3
630639.22 4834201.73 141.53 1
630638.74 4834201.94 141.31 9
630639.44 4834200.29 141.47 6
630639.06 4834201.06 141.42 3
630638.56 4834201.41 141.21 20
630638.9 4834201.5 141.39 6
630667.43 4834170.86 93.77 2
630667.89 4834172.69 93.61 10
630667.61 4834170.97 93.68 2
630667.07 4834172.46 93.63 12
630668.43 4834171.2 93.62 7
630667.43 4834171.46 93.64 7
630668.41 4834172.05 93.63 10
630667.08 4834171.82 93.64 21
630668.61 4834170.7 93.62 7
630666.72 4834172.81 93.62 7
630668.23 4834172.55 93.63 10
630667.26 4834171.33 93.64 7
630667.25 4834171.96 93.62 7
630668.25 4834171.7 93.62 7
630668.77 4834171.05 93.64 9
630668.07 4834172.19 93.61 12
630666.9 4834172.32 93.62 12
630668.59 4834171.55 93.64 9
630667.71 4834170.76 95.07 2
630633.82 4834167.33 140.98 7
630632.93 4834168.22 141.08 16
630633.09 4834167.16 141.27 7
630633.01 4834167.71 141.11 21
630633.76 4834166.77 140.97 23
630633.92 4834166.32 140.97 24
630632.83 4834166.73 141.51 3
630633.66 4834167.79 141 7
630633.17 4834166.6 141.5 5
630632.85 4834166.44 141.54 1
630632.91 4834166.28 141.22 1
630633.99 4834166.87 140.97 3
630633.49 4834168.25 141.01 10
630633.26 4834168.13 141.01 24
630634.15 4834166.41 140.96 1
630633.43 4834167.67 140.99 24
630633.59 4834167.22 140.98 21
630648.01 4834148.48 144.74 19
630647.86 4834148.91 144.72 19
630647.7 4834149.35 144.72 18
630647.08 4834149.41 144.72 16
630647.54 4834149.79 144.75 18
630646.42 4834149.39 144.74 19
630646.82 4834148.84 144.73 19
630648.07 4834148.93 144.73 20
630646.74 4834148.52 144.74 19
630648.23 4834148.48 144.74 18
630646.66 4834149.29 144.73 18
630646.58 4834148.95 144.75 19
630646.98 4834148.39 144.73 21
630647.24 4834148.39 144.72 18
630647.69 4834148.24 144.72 16
630647.74 4834149.84 144.76 19
630647.91 4834149.38 144.73 15
630647.61 4834148.75 144.71 18
630647.16 4834148.9 144.73 18
630647.54 4834149.25 144.7 16
630633.3 4834209.19 125.07 1
630634.46 4834209.48 125.92 2
630632.99 4834209.18 126.76 5
630633.93 4834209.85 124.84 7
630633.4 4834208.96 126.74 0
630640.59 4834189.76 161.31 0
630640.73 4834190.12 161.37 0
630640.43 4834190.2 161.33 0
630640.56 4834190.58 161.45 0
630640.27 4834190.63 161.28 0
630640.91 4834189.61 160.95 0
630639.96 4834188.97 160.85 0
630664.14 4834170.11 93.74 37
630663.93 4834169.97 93.73 32
630663.22 4834169.4 93.72 30
630662.16 4834168.58 93.78 38
630662.46 4834168.41 93.85 37
630662.29 4834168.88 93.71 36
630663.4 4834168.9 93.74 33
630662.95 4834169.46 93.69 30
630662.85 4834170.42 93.78 36
630662.59 4834170.47 93.75 36
630662.77 4834169.97 93.76 36
630664.29 4834168.98 93.74 34
630662.11 4834169.38 93.72 32
630663.13 4834168.96 93.7 33
630663.03 4834169.92 93.79 36
630663.75 4834170.47 93.75 34
630663.96 4834170.62 93.77 36
630663.57 4834168.42 93.84 32
630663.3 4834168.49 93.83 32
630664.11 4834169.47 93.69 32
630639.57 4834147.51 141.5 5
630639.97 4834146.2 141.2 10
630639.65 4834147.03 141.33 9
630639.73 4834146.49 141.49 6
630639.71 4834147.51 141.5 5
630639.81 4834145.98 141.51 6
630639.62 4834147.15 141.45 9
630640.24 4834146.02 140.98 20
630639.9 4834146.96 141.12 28
630639.8 4834146.66 141.27 10
630640.07 4834146.5 141.09 6
630651.91 4834143.96 137.91 6
630651.67 4834145.58 137.48 11
630651.4 4834144.68 137.49 18
630651.05 4834143.77 137.95 7
630650.92 4834144.13 137.6 18
630651.83 4834144.2 137.86 5
630652.1 4834143.98 137.94 7
630653.06 4834144.92 137.57 33
630651.7 4834144.55 137.5 15
630651.99 4834143.79 137.97 6
630652.99 4834144.79 137.62 21
630651.97 4834144.35 137.62 10
630651.33 4834145.19 137.49 20
630651.25 4834145.71 137.49 9
630651.48 4834144.08 137.91 6
630650.93 4834143.65 137.97 7
630652.87 4834144.89 137.55 20
630651.83 4834144.56 137.47 18
630653 4834144.53 137.85 7
630651.56 4834143.7 137.28 7
630652.91 4834145.33 137.48 14
630652.83 4834145.83 137.52 16
630651.81 4834144.76 137.48 0
630651.75 4834145.07 137.45 16
630658.86 4834152.86 144.73 15
630658.36 4834154.64 144.76 12
630658.59 4834153.13 144.75 18
630658.6 4834153.08 144.72 18
630657.8 4834152.74 144.75 20
630659.78 4834153.67 144.76 16
630658.22 4834152.98 144.74 18
630659.77 4834153.05 144.74 14
630662.67 4834173.44 93.69 25
630663.98 4834173.33 93.69 27
630662.34 4834175.11 93.71 24
630662.51 4834174.61 93.7 25
630663.97 4834174.18 93.68 12
630662.31 4834174.43 93.69 24
630664.15 4834173.69 93.67 19
630662.49 4834173.93 93.68 23
630663.05 4834173.11 93.69 25
630662.87 4834173.61 93.69 24
630662.69 4834174.11 93.69 24
630663.8 4834173.82 93.67 20
630663.79 4834174.69 93.69 19
630662.13 4834174.92 93.7 20
630663.62 4834174.32 93.69 15
630663.44 4834174.81 93.68 20
630662.85 4834172.94 93.69 21
630648.79 4834192.59 93.86 10
630649.99 4834192.31 93.77 12
630649.05 4834191.66 93.74 23
630648.88 4834192.76 93.72 19
630648.6 4834192.5 93.78 21
630648.97 4834192.21 93.73 24
630649.06 4834191.83 93.92 10
630648.71 4834192 93.82 9
630650.46 4834191.58 93.7 23
630650.17 4834191.81 93.75 12
630650.35 4834191.31 93.72 11
630650.78 4834191.65 93.64 11
630648.89 4834191.51 93.78 14
630650.68 4834192.93 93.67 20
630650.29 4834192.7 93.73 21
630648.77 4834191.36 93.82 23
630649.06 4834191.01 93.79 9
630650.37 4834192.14 93.71 24
630649.46 4834192.96 93.92 20
630650.69 4834192.19 93.66 15
630649.83 4834191.95 93.78 9
630650.01 4834191.45 93.74 7
630648.69 4834191.93 93.82 20
630650.19 4834190.95 93.72 7
630649.13 4834191.12 93.75 19
630649.64 4834192.45 93.86 12
630649.81 4834192.82 93.87 27
630650.61 4834192.74 93.66 20
630650.55 4834191.01 93.72 21
630661.3 4834204.19 85.76 38
630660.71 4834203.5 85.77 33
630661.66 4834203.21 85.84 45
630661.48 4834203.7 85.8 37
630660.41 4834204.02 85.65 0
630661.94 4834203.27 85.83 45
630661.83 4834202.74 85.95 39
